-1.5806795e+00 -1.5805028e+00 -1.5803702e+00 -1.5802376e+00 -1.5801049e+00 -1.5799280e+00 -1.5797953e+00 -1.5796626e+00 -1.5794856e+00 -1.5793529e+00 -1.5791760e+00 -1.5789992e+00 -1.5788666e+00 -1.5786900e+00 -1.5785134e+00 -1.5783371e+00 -1.5781609e+00 -1.5779849e+00 -1.5778092e+00 -1.5776336e+00 -1.5774146e+00 -1.5772397e+00 -1.5770214e+00 -1.5768037e+00 -1.5765865e+00 -1.5763698e+00 -1.5761105e+00 -1.5758521e+00 -1.5755946e+00 -1.5753380e+00 -1.5750397e+00 -1.5747004e+00 -1.5743626e+00 -1.5739846e+00 -1.5735667e+00 -1.5730681e+00 -1.5725311e+00 -1.5719145e+00 -1.5712185e+00 -1.5704825e+00 -1.5697864e+00 -1.5691699e+00 -1.5686328e+00 -1.5681343e+00 -1.5677164e+00 -1.5673383e+00 -1.5670006e+00 -1.5666613e+00 -1.5663630e+00 -1.5661064e+00 -1.5658489e+00 -1.5655904e+00 -1.5653312e+00 -1.5651145e+00 -1.5648973e+00 -1.5646795e+00 -1.5644613e+00 -1.5642864e+00 -1.5640673e+00 -1.5638918e+00 -1.5637161e+00 -1.5635401e+00 -1.5633639e+00 -1.5631875e+00 -1.5630110e+00 -1.5628344e+00 -1.5627018e+00 -1.5625250e+00 -1.5623481e+00 -1.5622154e+00 -1.5620384e+00 -1.5619057e+00 -1.5617730e+00 -1.5615960e+00 -1.5614634e+00 -1.5613307e+00 -1.5611982e+00 -1.5610215e+00 -1.5608891e+00 -1.5607567e+00 -1.5606245e+00 -1.5604923e+00 -1.5603603e+00 -1.5602283e+00 -1.5600965e+00 -1.5599649e+00 -1.5598333e+00 -1.5597020e+00 -1.5595707e+00 -1.5594397e+00 -1.5593088e+00 -1.5591781e+00 -1.5590476e+00 -1.5589172e+00 -1.5588305e+00 -1.5587005e+00 -1.5585706e+00 -1.5584411e+00 -1.5583117e+00 -1.5581825e+00 -1.5580536e+00 -1.5579677e+00 -1.5578391e+00 -1.5577108e+00 -1.5575827e+00 -1.5574548e+00 -1.5573696e+00 -1.5572421e+00 -1.5571148e+00 -1.5569877e+00 -1.5568609e+00 -1.5567765e+00 -1.5566500e+00 -1.5565238e+00 -1.5563978e+00 -1.5563139e+00 -1.5561882e+00 -1.5560627e+00 -1.5559375e+00 -1.5558124e+00 -1.5557292e+00 -1.5556044e+00 -1.5554799e+00 -1.5553555e+00 -1.5552727e+00 -1.5551486e+00 -1.5550247e+00 -1.5549009e+00 -1.5547773e+00 -1.5546949e+00 -1.5545715e+00 -1.5544482e+00 -1.5543250e+00 -1.5542019e+00 -1.5541199e+00 -1.5539970e+00 -1.5538741e+00 -1.5537513e+00 -1.5536695e+00 -1.5535467e+00 -1.5534241e+00 -1.5533014e+00 -1.5531787e+00 -1.5530970e+00 -1.5529743e+00 -1.5528517e+00 -1.5527290e+00 -1.5526063e+00 -1.5525244e+00 -1.5524016e+00 -1.5522788e+00 -1.5521558e+00 -1.5520738e+00 -1.5519507e+00 -1.5518275e+00 -1.5517042e+00 -1.5515808e+00 -1.5514985e+00 -1.5513748e+00 -1.5512510e+00 -1.5511271e+00 -1.5510030e+00 -1.5509202e+00 -1.5507958e+00 -1.5506713e+00 -1.5505466e+00 -1.5504633e+00 -1.5503382e+00 -1.5502130e+00 -1.5500875e+00 -1.5499619e+00 -1.5498780e+00 -1.5497520e+00 -1.5496257e+00 -1.5494992e+00 -1.5494148e+00 -1.5492880e+00 -1.5491609e+00 -1.5490336e+00 -1.5489061e+00 -1.5488210e+00 -1.5486931e+00 -1.5485649e+00 -1.5484366e+00 -1.5483080e+00 -1.5482222e+00 -1.5480932e+00 -1.5479641e+00 -1.5478347e+00 -1.5477051e+00 -1.5475753e+00 -1.5474453e+00 -1.5473585e+00 -1.5472282e+00 -1.5470976e+00 -1.5469669e+00 -1.5468360e+00 -1.5467050e+00 -1.5465738e+00
-1.5805912e+00 -1.5804586e+00 -1.5803260e+00 -1.5801934e+00 -1.5800165e+00 -1.5798838e+00 -1.5797510e+00 -1.5795741e+00 -1.5794414e+00 -1.5792644e+00 -1.5791318e+00 -1.5789550e+00 -1.5787783e+00 -1.5786017e+00 -1.5784693e+00 -1.5782930e+00 -1.5781169e+00 -1.5778970e+00 -1.5777214e+00 -1.5775460e+00 -1.5773271e+00 -1.5771523e+00 -1.5769343e+00 -1.5767167e+00 -1.5764997e+00 -1.5762833e+00 -1.5760243e+00 -1.5757662e+00 -1.5755089e+00 -1.5752526e+00 -1.5749547e+00 -1.5746158e+00 -1.5742785e+00 -1.5739008e+00 -1.5734834e+00 -1.5729853e+00 -1.5724487e+00 -1.5718735e+00 -1.5711776e+00 -1.5705234e+00 -1.5698274e+00 -1.5692523e+00 -1.5687156e+00 -1.5682176e+00 -1.5678002e+00 -1.5674225e+00 -1.5670852e+00 -1.5667463e+00 -1.5664484e+00 -1.5661920e+00 -1.5659348e+00 -1.5656767e+00 -1.5654177e+00 -1.5652013e+00 -1.5649842e+00 -1.5647667e+00 -1.5645487e+00 -1.5643739e+00 -1.5641550e+00 -1.5639796e+00 -1.5638040e+00 -1.5635841e+00 -1.5634079e+00 -1.5632316e+00 -1.5630993e+00 -1.5629227e+00 -1.5627460e+00 -1.5625692e+00 -1.5624365e+00 -1.5622596e+00 -1.5621269e+00 -1.5619499e+00 -1.5618172e+00 -1.5616845e+00 -1.5615076e+00 -1.5613749e+00 -1.5612423e+00 -1.5611098e+00 -1.5609773e+00 -1.5608008e+00 -1.5606685e+00 -1.5605363e+00 -1.5604043e+00 -1.5602723e+00 -1.5601405e+00 -1.5600087e+00 -1.5598772e+00 -1.5597457e+00 -1.5596145e+00 -1.5594834e+00 -1.5593524e+00 -1.5592216e+00 -1.5590911e+00 -1.5589607e+00 -1.5588738e+00 -1.5587438e+00 -1.5586139e+00 -1.5584842e+00 -1.5583548e+00 -1.5582255e+00 -1.5580965e+00 -1.5580106e+00 -1.5578820e+00 -1.5577535e+00 -1.5576253e+00 -1.5574974e+00 -1.5573696e+00 -1.5572846e+00 -1.5571572e+00 -1.5570301e+00 -1.5569032e+00 -1.5567765e+00 -1.5566921e+00 -1.5565658e+00 -1.5564397e+00 -1.5563139e+00 -1.5561882e+00 -1.5561045e+00 -1.5559792e+00 -1.5558541e+00 -1.5557292e+00 -1.5556044e+00 -1.5555214e+00 -1.5553970e+00 -1.5552727e+00 -1.5551486e+00 -1.5550247e+00 -1.5549422e+00 -1.5548185e+00 -1.5546949e+00 -1.5545715e+00 -1.5544482e+00 -1.5543661e+00 -1.5542429e+00 -1.5541199e+00 -1.5539970e+00 -1.5538741e+00 -1.5537513e+00 -1.5536695e+00 -1.5535467e+00 -1.5534241e+00 -1.5533014e+00 -1.5531787e+00 -1.5530970e+00 -1.5529743e+00 -1.5528517e+00 -1.5527290e+00 -1.5526063e+00 -1.5525244e+00 -1.5524016e+00 -1.5522788e+00 -1.5521558e+00 -1.5520328e+00 -1.5519097e+00 -1.5518275e+00 -1.5517042e+00 -1.5515808e+00 -1.5514573e+00 -1.5513336e+00 -1.5512510e+00 -1.5511271e+00 -1.5510030e+00 -1.5508788e+00 -1.5507543e+00 -1.5506713e+00 -1.5505466e+00 -1.5504216e+00 -1.5502965e+00 -1.5501712e+00 -1.5500875e+00 -1.5499619e+00 -1.5498360e+00 -1.5497099e+00 -1.5495836e+00 -1.5494992e+00 -1.5493726e+00 -1.5492457e+00 -1.5491185e+00 -1.5489911e+00 -1.5489061e+00 -1.5487784e+00 -1.5486504e+00 -1.5485222e+00 -1.5483938e+00 -1.5482651e+00 -1.5481792e+00 -1.5480502e+00 -1.5479210e+00 -1.5477915e+00 -1.5476618e+00 -1.5475320e+00 -1.5474019e+00 -1.5473151e+00 -1.5471847e+00 -1.5470541e+00 -1.5469233e+00 -1.5467924e+00 -1.5466613e+00 -1.5465300e+00
-1.5805470e+00 -1.5804144e+00 -1.5802376e+00 -1.5801049e+00 -1.5799722e+00 -1.5798395e+00 -1.5796626e+00 -1.5795298e+00 -1.5793529e+00 -1.5792202e+00 -1.5790434e+00 -1.5788666e+00 -1.5787341e+00 -1.5785576e+00 -1.5783812e+00 -1.5782049e+00 -1.5780289e+00 -1.5778531e+00 -1.5776775e+00 -1.5774584e+00 -1.5772834e+00 -1.5770650e+00 -1.5768472e+00 -1.5766299e+00 -1.5764131e+00 -1.5761969e+00 -1.5759382e+00 -1.5756803e+00 -1.5754234e+00 -1.5751674e+00 -1.5748698e+00 -1.5745313e+00 -1.5741944e+00 -1.5738172e+00 -1.5734002e+00 -1.5729026e+00 -1.5724075e+00 -1.5718325e+00 -1.5711776e+00 -1.5705234e+00 -1.5698684e+00 -1.5692934e+00 -1.5687984e+00 -1.5683008e+00 -1.5678838e+00 -1.5675066e+00 -1.5671697e+00 -1.5668311e+00 -1.5665336e+00 -1.5662776e+00 -1.5660206e+00 -1.5657628e+00 -1.5655041e+00 -1.5652879e+00 -1.5650711e+00 -1.5648538e+00 -1.5646359e+00 -1.5644176e+00 -1.5642426e+00 -1.5640235e+00 -1.5638479e+00 -1.5636721e+00 -1.5634960e+00 -1.5633198e+00 -1.5631434e+00 -1.5629669e+00 -1.5628344e+00 -1.5626576e+00 -1.5624808e+00 -1.5623481e+00 -1.5621711e+00 -1.5620384e+00 -1.5618614e+00 -1.5617287e+00 -1.5615960e+00 -1.5614634e+00 -1.5612865e+00 -1.5611540e+00 -1.5610215e+00 -1.5608891e+00 -1.5607567e+00 -1.5605804e+00 -1.5604483e+00 -1.5603163e+00 -1.5601844e+00 -1.5600526e+00 -1.5599210e+00 -1.5597895e+00 -1.5596582e+00 -1.5595270e+00 -1.5593960e+00 -1.5592652e+00 -1.5591346e+00 -1.5590041e+00 -1.5589172e+00 -1.5587871e+00 -1.5586572e+00 -1.5585274e+00 -1.5583979e+00 -1.5582686e+00 -1.5581395e+00 -1.5580106e+00 -1.5579248e+00 -1.5577963e+00 -1.5576680e+00 -1.5575400e+00 -1.5574122e+00 -1.5572846e+00 -1.5571996e+00 -1.5570724e+00 -1.5569454e+00 -1.5568187e+00 -1.5566921e+00 -1.5565658e+00 -1.5564817e+00 -1.5563558e+00 -1.5562301e+00 -1.5561045e+00 -1.5559792e+00 -1.5558958e+00 -1.5557708e+00 -1.5556460e+00 -1.5555214e+00 -1.5553970e+00 -1.5552727e+00 -1.5551900e+00 -1.5550660e+00 -1.5549422e+00 -1.5548185e+00 -1.5546949e+00 -1.5545715e+00 -1.5544893e+00 -1.5543661e+00 -1.5542429e+00 -1.5541199e+00 -1.5539970e+00 -1.5538741e+00 -1.5537922e+00 -1.5536695e+00 -1.5535467e+00 -1.5534241e+00 -1.5533014e+00 -1.5531787e+00 -1.5530970e+00 -1.5529743e+00 -1.5528517e+00 -1.5527290e+00 -1.5526063e+00 -1.5524835e+00 -1.5524016e+00 -1.5522788e+00 -1.5521558e+00 -1.5520328e+00 -1.5519097e+00 -1.5517864e+00 -1.5517042e+00 -1.5515808e+00 -1.5514573e+00 -1.5513336e+00 -1.5512097e+00 -1.5510858e+00 -1.5510030e+00 -1.5508788e+00 -1.5507543e+00 -1.5506297e+00 -1.5505049e+00 -1.5503799e+00 -1.5502965e+00 -1.5501712e+00 -1.5500457e+00 -1.5499199e+00 -1.5497940e+00 -1.5497099e+00 -1.5495836e+00 -1.5494570e+00 -1.5493303e+00 -1.5492033e+00 -1.5490761e+00 -1.5489911e+00 -1.5488636e+00 -1.5487357e+00 -1.5486077e+00 -1.5484794e+00 -1.5483509e+00 -1.5482651e+00 -1.5481362e+00 -1.5480071e+00 -1.5478778e+00 -1.5477483e+00 -1.5476186e+00 -1.5474886e+00 -1.5473585e+00 -1.5472716e+00 -1.5471412e+00 -1.5470105e+00 -1.5468797e+00 -1.5467487e+00 -1.5466175e+00 -1.5464862e+00
-1.5805028e+00 -1.5803260e+00 -1.5801934e+00 -1.5800607e+00 -1.5798838e+00 -1.5797510e+00 -1.5796183e+00 -1.5794414e+00 -1.5793087e+00 -1.5791318e+00 -1.5789992e+00 -1.5788224e+00 -1.5786458e+00 -1.5784693e+00 -1.5782930e+00 -1.5781169e+00 -1.5779410e+00 -1.5777652e+00 -1.5775898e+00 -1.5774146e+00 -1.5771960e+00 -1.5769778e+00 -1.5768037e+00 -1.5765865e+00 -1.5763265e+00 -1.5761105e+00 -1.5758521e+00 -1.5755946e+00 -1.5753380e+00 -1.5750822e+00 -1.5747851e+00 -1.5744469e+00 -1.5741104e+00 -1.5737336e+00 -1.5733171e+00 -1.5728612e+00 -1.5723253e+00 -1.5717915e+00 -1.5711776e+00 -1.5705234e+00 -1.5699094e+00 -1.5693757e+00 -1.5688397e+00 -1.5683839e+00 -1.5679674e+00 -1.5675906e+00 -1.5672540e+00 -1.5669159e+00 -1.5666187e+00 -1.5663630e+00 -1.5661064e+00 -1.5658489e+00 -1.5655904e+00 -1.5653745e+00 -1.5651145e+00 -1.5648973e+00 -1.5647231e+00 -1.5645050e+00 -1.5642864e+00 -1.5641112e+00 -1.5639357e+00 -1.5637600e+00 -1.5635841e+00 -1.5634079e+00 -1.5632316e+00 -1.5630552e+00 -1.5628785e+00 -1.5627018e+00 -1.5625692e+00 -1.5623923e+00 -1.5622596e+00 -1.5620827e+00 -1.5619499e+00 -1.5618172e+00 -1.5616403e+00 -1.5615076e+00 -1.5613749e+00 -1.5611982e+00 -1.5610656e+00 -1.5609332e+00 -1.5608008e+00 -1.5606685e+00 -1.5605363e+00 -1.5603603e+00 -1.5602283e+00 -1.5600965e+00 -1.5599649e+00 -1.5598333e+00 -1.5597020e+00 -1.5595707e+00 -1.5594397e+00 -1.5593088e+00 -1.5591781e+00 -1.5590911e+00 -1.5589607e+00 -1.5588305e+00 -1.5587005e+00 -1.5585706e+00 -1.5584411e+00 -1.5583117e+00 -1.5581825e+00 -1.5580536e+00 -1.5579248e+00 -1.5578391e+00 -1.5577108e+00 -1.5575827e+00 -1.5574548e+00 -1.5573271e+00 -1.5571996e+00 -1.5571148e+00 -1.5569877e+00 -1.5568609e+00 -1.5567343e+00 -1.5566079e+00 -1.5564817e+00 -1.5563558e+00 -1.5562719e+00 -1.5561464e+00 -1.5560210e+00 -1.5558958e+00 -1.5557708e+00 -1.5556460e+00 -1.5555629e+00 -1.5554384e+00 -1.5553141e+00 -1.5551900e+00 -1.5550660e+00 -1.5549422e+00 -1.5548185e+00 -1.5547361e+00 -1.5546126e+00 -1.5544893e+00 -1.5543661e+00 -1.5542429e+00 -1.5541199e+00 -1.5539970e+00 -1.5539151e+00 -1.5537922e+00 -1.5536695e+00 -1.5535467e+00 -1.5534241e+00 -1.5533014e+00 -1.5531787e+00 -1.5530970e+00 -1.5529743e+00 -1.5528517e+00 -1.5527290e+00 -1.5526063e+00 -1.5524835e+00 -1.5523607e+00 -1.5522788e+00 -1.5521558e+00 -1.5520328e+00 -1.5519097e+00 -1.5517864e+00 -1.5516631e+00 -1.5515396e+00 -1.5514573e+00 -1.5513336e+00 -1.5512097e+00 -1.5510858e+00 -1.5509616e+00 -1.5508373e+00 -1.5507128e+00 -1.5506297e+00 -1.5505049e+00 -1.5503799e+00 -1.5502548e+00 -1.5501294e+00 -1.5500038e+00 -1.5499199e+00 -1.5497940e+00 -1.5496678e+00 -1.5495414e+00 -1.5494148e+00 -1.5492880e+00 -1.5491609e+00 -1.5490761e+00 -1.5489486e+00 -1.5488210e+00 -1.5486931e+00 -1.5485649e+00 -1.5484366e+00 -1.5483509e+00 -1.5482222e+00 -1.5480932e+00 -1.5479641e+00 -1.5478347e+00 -1.5477051e+00 -1.5475753e+00 -1.5474453e+00 -1.5473151e+00 -1.5471847e+00 -1.5470976e+00 -1.5469669e+00 -1.5468360e+00 -1.5467050e+00 -1.5465738e+00 -1.5464424e+00
-1.5804144e+00 -1.5802818e+00 -1.5801492e+00 -1.5799722e+00 -1.5798395e+00 -1.5797068e+00 -1.5795298e+00 -1.5793971e+00 -1.5792202e+00 -1.5790876e+00 -1.5789108e+00 -1.5787341e+00 -1.5786017e+00 -1.5784252e+00 -1.5782490e+00 -1.5780729e+00 -1.5778970e+00 -1.5777214e+00 -1.5775022e+00 -1.5773271e+00 -1.5771087e+00 -1.5769343e+00 -1.5767167e+00 -1.5764997e+00 -1.5762833e+00 -1.5760243e+00 -1.5758091e+00 -1.5755518e+00 -1.5752526e+00 -1.5749972e+00 -1.5747004e+00 -1.5743626e+00 -1.5740265e+00 -1.5736501e+00 -1.5732340e+00 -1.5727786e+00 -1.5722841e+00 -1.5717506e+00 -1.5711367e+00 -1.5705643e+00 -1.5699504e+00 -1.5694168e+00 -1.5689224e+00 -1.5684670e+00 -1.5680509e+00 -1.5676745e+00 -1.5673383e+00 -1.5670006e+00 -1.5667038e+00 -1.5664484e+00 -1.5661492e+00 -1.5658918e+00 -1.5656767e+00 -1.5654177e+00 -1.5652013e+00 -1.5649842e+00 -1.5647667e+00 -1.5645923e+00 -1.5643739e+00 -1.5641988e+00 -1.5639796e+00 -1.5638040e+00 -1.5636281e+00 -1.5634520e+00 -1.5632757e+00 -1.5630993e+00 -1.5629669e+00 -1.5627902e+00 -1.5626134e+00 -1.5624808e+00 -1.5623039e+00 -1.5621711e+00 -1.5619942e+00 -1.5618614e+00 -1.5617287e+00 -1.5615518e+00 -1.5614192e+00 -1.5612865e+00 -1.5611098e+00 -1.5609773e+00 -1.5608449e+00 -1.5607126e+00 -1.5605804e+00 -1.5604483e+00 -1.5603163e+00 -1.5601844e+00 -1.5600526e+00 -1.5598772e+00 -1.5597457e+00 -1.5596145e+00 -1.5594834e+00 -1.5593960e+00 -1.5592652e+00 -1.5591346e+00 -1.5590041e+00 -1.5588738e+00 -1.5587438e+00 -1.5586139e+00 -1.5584842e+00 -1.5583548e+00 -1.5582255e+00 -1.5580965e+00 -1.5579677e+00 -1.5578820e+00 -1.5577535e+00 -1.5576253e+00 -1.5574974e+00 -1.5573696e+00 -1.5572421e+00 -1.5571148e+00 -1.5569877e+00 -1.5569032e+00 -1.5567765e+00 -1.5566500e+00 -1.5565238e+00 -1.5563978e+00 -1.5562719e+00 -1.5561464e+00 -1.5560627e+00 -1.5559375e+00 -1.5558124e+00 -1.5556876e+00 -1.5555629e+00 -1.5554384e+00 -1.5553141e+00 -1.5551900e+00 -1.5551073e+00 -1.5549834e+00 -1.5548597e+00 -1.5547361e+00 -1.5546126e+00 -1.5544893e+00 -1.5543661e+00 -1.5542429e+00 -1.5541609e+00 -1.5540379e+00 -1.5539151e+00 -1.5537922e+00 -1.5536695e+00 -1.5535467e+00 -1.5534241e+00 -1.5533014e+00 -1.5531787e+00 -1.5530970e+00 -1.5529743e+00 -1.5528517e+00 -1.5527290e+00 -1.5526063e+00 -1.5524835e+00 -1.5523607e+00 -1.5522378e+00 -1.5521148e+00 -1.5520328e+00 -1.5519097e+00 -1.5517864e+00 -1.5516631e+00 -1.5515396e+00 -1.5514160e+00 -1.5512923e+00 -1.5511684e+00 -1.5510858e+00 -1.5509616e+00 -1.5508373e+00 -1.5507128e+00 -1.5505882e+00 -1.5504633e+00 -1.5503382e+00 -1.5502130e+00 -1.5501294e+00 -1.5500038e+00 -1.5498780e+00 -1.5497520e+00 -1.5496257e+00 -1.5494992e+00 -1.5493726e+00 -1.5492880e+00 -1.5491609e+00 -1.5490336e+00 -1.5489061e+00 -1.5487784e+00 -1.5486504e+00 -1.5485222e+00 -1.5483938e+00 -1.5483080e+00 -1.5481792e+00 -1.5480502e+00 -1.5479210e+00 -1.5477915e+00 -1.5476618e+00 -1.5475320e+00 -1.5474019e+00 -1.5472716e+00 -1.5471412e+00 -1.5470105e+00 -1.5468797e+00 -1.5467924e+00 -1.5466613e+00 -1.5465300e+00 -1.5463986e+00
-1.5803702e+00 -1.5802376e+00 -1.5800607e+00 -1.5799280e+00 -1.5797953e+00 -1.5796183e+00 -1.5794856e+00 -1.5793087e+00 -1.5791760e+00 -1.5789992e+00 -1.5788666e+00 -1.5786900e+00 -1.5785134e+00 -1.5783371e+00 -1.5781609e+00 -1.5779849e+00 -1.5778092e+00 -1.5776336e+00 -1.5774584e+00 -1.5772397e+00 -1.5770650e+00 -1.5768472e+00 -1.5766299e+00 -1.5764131e+00 -1.5761969e+00 -1.5759382e+00 -1.5757232e+00 -1.5754662e+00 -1.5751674e+00 -1.5749123e+00 -1.5746158e+00 -1.5742785e+00 -1.5739427e+00 -1.5735667e+00 -1.5731510e+00 -1.5726960e+00 -1.5722430e+00 -1.5717096e+00 -1.5711367e+00 -1.5705643e+00 -1.5699914e+00 -1.5694580e+00 -1.5690049e+00 -1.5685499e+00 -1.5681343e+00 -1.5677583e+00 -1.5674225e+00 -1.5670852e+00 -1.5667887e+00 -1.5665336e+00 -1.5662348e+00 -1.5659777e+00 -1.5657628e+00 -1.5655041e+00 -1.5652879e+00 -1.5650711e+00 -1.5648538e+00 -1.5646359e+00 -1.5644613e+00 -1.5642426e+00 -1.5640673e+00 -1.5638918e+00 -1.5637161e+00 -1.5635401e+00 -1.5633639e+00 -1.5631875e+00 -1.5630110e+00 -1.5628344e+00 -1.5627018e+00 -1.5625250e+00 -1.5623923e+00 -1.5622154e+00 -1.5620827e+00 -1.5619057e+00 -1.5617730e+00 -1.5616403e+00 -1.5614634e+00 -1.5613307e+00 -1.5611982e+00 -1.5610656e+00 -1.5608891e+00 -1.5607567e+00 -1.5606245e+00 -1.5604923e+00 -1.5603603e+00 -1.5602283e+00 -1.5600965e+00 -1.5599649e+00 -1.5598333e+00 -1.5597020e+00 -1.5595707e+00 -1.5594397e+00 -1.5593088e+00 -1.5591781e+00 -1.5590476e+00 -1.5589172e+00 -1.5587871e+00 -1.5586572e+00 -1.5585274e+00 -1.5583979e+00 -1.5582686e+00 -1.5581395e+00 -1.5580106e+00 -1.5578820e+00 -1.5577963e+00 -1.5576680e+00 -1.5575400e+00 -1.5574122e+00 -1.5572846e+00 -1.5571572e+00 -1.5570301e+00 -1.5569032e+00 -1.5567765e+00 -1.5566921e+00 -1.5565658e+00 -1.5564397e+00 -1.5563139e+00 -1.5561882e+00 -1.5560627e+00 -1.5559375e+00 -1.5558124e+00 -1.5556876e+00 -1.5556044e+00 -1.5554799e+00 -1.5553555e+00 -1.5552313e+00 -1.5551073e+00 -1.5549834e+00 -1.5548597e+00 -1.5547361e+00 -1.5546126e+00 -1.5544893e+00 -1.5544071e+00 -1.5542840e+00 -1.5541609e+00 -1.5540379e+00 -1.5539151e+00 -1.5537922e+00 -1.5536695e+00 -1.5535467e+00 -1.5534241e+00 -1.5533014e+00 -1.5531787e+00 -1.5530970e+00 -1.5529743e+00 -1.5528517e+00 -1.5527290e+00 -1.5526063e+00 -1.5524835e+00 -1.5523607e+00 -1.5522378e+00 -1.5521148e+00 -1.5519918e+00 -1.5518686e+00 -1.5517864e+00 -1.5516631e+00 -1.5515396e+00 -1.5514160e+00 -1.5512923e+00 -1.5511684e+00 -1.5510444e+00 -1.5509202e+00 -1.5507958e+00 -1.5506713e+00 -1.5505882e+00 -1.5504633e+00 -1.5503382e+00 -1.5502130e+00 -1.5500875e+00 -1.5499619e+00 -1.5498360e+00 -1.5497099e+00 -1.5495836e+00 -1.5494992e+00 -1.5493726e+00 -1.5492457e+00 -1.5491185e+00 -1.5489911e+00 -1.5488636e+00 -1.5487357e+00 -1.5486077e+00 -1.5484794e+00 -1.5483938e+00 -1.5482651e+00 -1.5481362e+00 -1.5480071e+00 -1.5478778e+00 -1.5477483e+00 -1.5476186e+00 -1.5474886e+00 -1.5473585e+00 -1.5472282e+00 -1.5470976e+00 -1.5469669e+00 -1.5468360e+00 -1.5467050e+00 -1.5465738e+00 -1.5464424e+00 -1.5463109e+00
-1.5803260e+00 -1.5801492e+00 -1.5800165e+00 -1.5798838e+00 -1.5797068e+00 -1.5795741e+00 -1.5793971e+00 -1.5792644e+00 -1.5790876e+00 -1.5789550e+00 -1.5787783e+00 -1.5786017e+00 -1.5784252e+00 -1.5782930e+00 -1.5781169e+00 -1.5779410e+00 -1.5777214e+00 -1.5775460e+00 -1.5773708e+00 -1.5771523e+00 -1.5769778e+00 -1.5767602e+00 -1.5765431e+00 -1.5763265e+00 -1.5761105e+00 -1.5758951e+00 -1.5756375e+00 -1.5753807e+00 -1.5751248e+00 -1.5748274e+00 -1.5745313e+00 -1.5741944e+00 -1.5738590e+00 -1.5734834e+00 -1.5730681e+00 -1.5726548e+00 -1.5721608e+00 -1.5716686e+00 -1.5711367e+00 -1.5705643e+00 -1.5700323e+00 -1.5695401e+00 -1.5690462e+00 -1.5686328e+00 -1.5682176e+00 -1.5678420e+00 -1.5675066e+00 -1.5671697e+00 -1.5668735e+00 -1.5665762e+00 -1.5663203e+00 -1.5660635e+00 -1.5658058e+00 -1.5655904e+00 -1.5653745e+00 -1.5651579e+00 -1.5649408e+00 -1.5647231e+00 -1.5645487e+00 -1.5643301e+00 -1.5641550e+00 -1.5639796e+00 -1.5637600e+00 -1.5635841e+00 -1.5634079e+00 -1.5632757e+00 -1.5630993e+00 -1.5629227e+00 -1.5627460e+00 -1.5626134e+00 -1.5624365e+00 -1.5623039e+00 -1.5621269e+00 -1.5619942e+00 -1.5618172e+00 -1.5616845e+00 -1.5615518e+00 -1.5613749e+00 -1.5612423e+00 -1.5611098e+00 -1.5609773e+00 -1.5608008e+00 -1.5606685e+00 -1.5605363e+00 -1.5604043e+00 -1.5602723e+00 -1.5601405e+00 -1.5600087e+00 -1.5598772e+00 -1.5597457e+00 -1.5596145e+00 -1.5594834e+00 -1.5593524e+00 -1.5592216e+00 -1.5590911e+00 -1.5589607e+00 -1.5588305e+00 -1.5587005e+00 -1.5585706e+00 -1.5584411e+00 -1.5583117e+00 -1.5581825e+00 -1.5580536e+00 -1.5579248e+00 -1.5577963e+00 -1.5577108e+00 -1.5575827e+00 -1.5574548e+00 -1.5573271e+00 -1.5571996e+00 -1.5570724e+00 -1.5569454e+00 -1.5568187e+00 -1.5566921e+00 -1.5565658e+00 -1.5564397e+00 -1.5563558e+00 -1.5562301e+00 -1.5561045e+00 -1.5559792e+00 -1.5558541e+00 -1.5557292e+00 -1.5556044e+00 -1.5554799e+00 -1.5553555e+00 -1.5552313e+00 -1.5551073e+00 -1.5549834e+00 -1.5549009e+00 -1.5547773e+00 -1.5546538e+00 -1.5545304e+00 -1.5544071e+00 -1.5542840e+00 -1.5541609e+00 -1.5540379e+00 -1.5539151e+00 -1.5537922e+00 -1.5536695e+00 -1.5535467e+00 -1.5534241e+00 -1.5533014e+00 -1.5531787e+00 -1.5530970e+00 -1.5529743e+00 -1.5528517e+00 -1.5527290e+00 -1.5526063e+00 -1.5524835e+00 -1.5523607e+00 -1.5522378e+00 -1.5521148e+00 -1.5519918e+00 -1.5518686e+00 -1.5517453e+00 -1.5516220e+00 -1.5514985e+00 -1.5513748e+00 -1.5512923e+00 -1.5511684e+00 -1.5510444e+00 -1.5509202e+00 -1.5507958e+00 -1.5506713e+00 -1.5505466e+00 -1.5504216e+00 -1.5502965e+00 -1.5501712e+00 -1.5500457e+00 -1.5499199e+00 -1.5498360e+00 -1.5497099e+00 -1.5495836e+00 -1.5494570e+00 -1.5493303e+00 -1.5492033e+00 -1.5490761e+00 -1.5489486e+00 -1.5488210e+00 -1.5486931e+00 -1.5485649e+00 -1.5484794e+00 -1.5483509e+00 -1.5482222e+00 -1.5480932e+00 -1.5479641e+00 -1.5478347e+00 -1.5477051e+00 -1.5475753e+00 -1.5474453e+00 -1.5473151e+00 -1.5471847e+00 -1.5470541e+00 -1.5469233e+00 -1.5467924e+00 -1.5466613e+00 -1.5465300e+00 -1.5463986e+00 -1.5462670e+00
-1.5802376e+00 -1.5801049e+00 -1.5799722e+00 -1.5797953e+00 -1.5796626e+00 -1.5794856e+00 -1.5793529e+00 -1.5791760e+00 -1.5790434e+00 -1.5788666e+00 -1.5786900e+00 -1.5785576e+00 -1.5783812e+00 -1.5782049e+00 -1.5780289e+00 -1.5778531e+00 -1.5776775e+00 -1.5775022e+00 -1.5772834e+00 -1.5771087e+00 -1.5768907e+00 -1.5766733e+00 -1.5764997e+00 -1.5762400e+00 -1.5760243e+00 -1.5758091e+00 -1.5755518e+00 -1.5752953e+00 -1.5750397e+00 -1.5747427e+00 -1.5744469e+00 -1.5741104e+00 -1.5737754e+00 -1.5734002e+00 -1.5730267e+00 -1.5725723e+00 -1.5721198e+00 -1.5716277e+00 -1.5710958e+00 -1.5706052e+00 -1.5700733e+00 -1.5695812e+00 -1.5691287e+00 -1.5686742e+00 -1.5683008e+00 -1.5679256e+00 -1.5675906e+00 -1.5672540e+00 -1.5669583e+00 -1.5666613e+00 -1.5664057e+00 -1.5661492e+00 -1.5658918e+00 -1.5656767e+00 -1.5654609e+00 -1.5652013e+00 -1.5650277e+00 -1.5648103e+00 -1.5645923e+00 -1.5644176e+00 -1.5641988e+00 -1.5640235e+00 -1.5638479e+00 -1.5636721e+00 -1.5634960e+00 -1.5633198e+00 -1.5631434e+00 -1.5630110e+00 -1.5628344e+00 -1.5626576e+00 -1.5625250e+00 -1.5623481e+00 -1.5622154e+00 -1.5620384e+00 -1.5619057e+00 -1.5617287e+00 -1.5615960e+00 -1.5614634e+00 -1.5612865e+00 -1.5611540e+00 -1.5610215e+00 -1.5608891e+00 -1.5607567e+00 -1.5605804e+00 -1.5604483e+00 -1.5603163e+00 -1.5601844e+00 -1.5600526e+00 -1.5599210e+00 -1.5597895e+00 -1.5596582e+00 -1.5595270e+00 -1.5593960e+00 -1.5592652e+00 -1.5591346e+00 -1.5590041e+00 -1.5588738e+00 -1.5587438e+00 -1.5586139e+00 -1.5584842e+00 -1.5583548e+00 -1.5582255e+00 -1.5580965e+00 -1.5579677e+00 -1.5578391e+00 -1.5577108e+00 -1.5575827e+00 -1.5574974e+00 -1.5573696e+00 -1.5572421e+00 -1.5571148e+00 -1.5569877e+00 -1.5568609e+00 -1.5567343e+00 -1.5566079e+00 -1.5564817e+00 -1.5563558e+00 -1.5562301e+00 -1.5561045e+00 -1.5559792e+00 -1.5558958e+00 -1.5557708e+00 -1.5556460e+00 -1.5555214e+00 -1.5553970e+00 -1.5552727e+00 -1.5551486e+00 -1.5550247e+00 -1.5549009e+00 -1.5547773e+00 -1.5546538e+00 -1.5545304e+00 -1.5544071e+00 -1.5542840e+00 -1.5541609e+00 -1.5540379e+00 -1.5539151e+00 -1.5537922e+00 -1.5536695e+00 -1.5535467e+00 -1.5534241e+00 -1.5533014e+00 -1.5531787e+00 -1.5530970e+00 -1.5529743e+00 -1.5528517e+00 -1.5527290e+00 -1.5526063e+00 -1.5524835e+00 -1.5523607e+00 -1.5522378e+00 -1.5521148e+00 -1.5519918e+00 -1.5518686e+00 -1.5517453e+00 -1.5516220e+00 -1.5514985e+00 -1.5513748e+00 -1.5512510e+00 -1.5511271e+00 -1.5510030e+00 -1.5508788e+00 -1.5507543e+00 -1.5506297e+00 -1.5505049e+00 -1.5503799e+00 -1.5502965e+00 -1.5501712e+00 -1.5500457e+00 -1.5499199e+00 -1.5497940e+00 -1.5496678e+00 -1.5495414e+00 -1.5494148e+00 -1.5492880e+00 -1.5491609e+00 -1.5490336e+00 -1.5489061e+00 -1.5487784e+00 -1.5486931e+00 -1.5485649e+00 -1.5484366e+00 -1.5483080e+00 -1.5481792e+00 -1.5480502e+00 -1.5479210e+00 -1.5477915e+00 -1.5476618e+00 -1.5475320e+00 -1.5474019e+00 -1.5472716e+00 -1.5471412e+00 -1.5470105e+00 -1.5468797e+00 -1.5467487e+00 -1.5466175e+00 -1.5464862e+00 -1.5463547e+00 -1.5462231e+00
-1.5801934e+00 -1.5800607e+00 -1.5798838e+00 -1.5797510e+00 -1.5795741e+00 -1.5794414e+00 -1.5792644e+00 -1.5791318e+00 -1.5789550e+00 -1.5788224e+00 -1.5786458e+00 -1.5784693e+00 -1.5782930e+00 -1.5781169e+00 -1.5779410e+00 -1.5777652e+00 -1.5775898e+00 -1.5774146e+00 -1.5772397e+00 -1.5770214e+00 -1.5768037e+00 -1.5766299e+00 -1.5764131e+00 -1.5761969e+00 -1.5759382e+00 -1.5757232e+00 -1.5754662e+00 -1.5752100e+00 -1.5749547e+00 -1.5746581e+00 -1.5743626e+00 -1.5740265e+00 -1.5736918e+00 -1.5733586e+00 -1.5729439e+00 -1.5725311e+00 -1.5720787e+00 -1.5715867e+00 -1.5710958e+00 -1.5706052e+00 -1.5701142e+00 -1.5696223e+00 -1.5691699e+00 -1.5687570e+00 -1.5683423e+00 -1.5680091e+00 -1.5676745e+00 -1.5673383e+00 -1.5670429e+00 -1.5667463e+00 -1.5664910e+00 -1.5662348e+00 -1.5659777e+00 -1.5657628e+00 -1.5655041e+00 -1.5652879e+00 -1.5650711e+00 -1.5648973e+00 -1.5646795e+00 -1.5644613e+00 -1.5642864e+00 -1.5641112e+00 -1.5639357e+00 -1.5637600e+00 -1.5635841e+00 -1.5634079e+00 -1.5632316e+00 -1.5630552e+00 -1.5628785e+00 -1.5627460e+00 -1.5625692e+00 -1.5624365e+00 -1.5622596e+00 -1.5621269e+00 -1.5619499e+00 -1.5618172e+00 -1.5616403e+00 -1.5615076e+00 -1.5613749e+00 -1.5612423e+00 -1.5610656e+00 -1.5609332e+00 -1.5608008e+00 -1.5606685e+00 -1.5605363e+00 -1.5603603e+00 -1.5602283e+00 -1.5600965e+00 -1.5599649e+00 -1.5598333e+00 -1.5597020e+00 -1.5595707e+00 -1.5594397e+00 -1.5593088e+00 -1.5591781e+00 -1.5590476e+00 -1.5589172e+00 -1.5587871e+00 -1.5586572e+00 -1.5585274e+00 -1.5583979e+00 -1.5582686e+00 -1.5581395e+00 -1.5580106e+00 -1.5578820e+00 -1.5577535e+00 -1.5576253e+00 -1.5574974e+00 -1.5573696e+00 -1.5572846e+00 -1.5571572e+00 -1.5570301e+00 -1.5569032e+00 -1.5567765e+00 -1.5566500e+00 -1.5565238e+00 -1.5563978e+00 -1.5562719e+00 -1.5561464e+00 -1.5560210e+00 -1.5558958e+00 -1.5557708e+00 -1.5556460e+00 -1.5555214e+00 -1.5553970e+00 -1.5552727e+00 -1.5551486e+00 -1.5550247e+00 -1.5549009e+00 -1.5547773e+00 -1.5546538e+00 -1.5545304e+00 -1.5544071e+00 -1.5542840e+00 -1.5541609e+00 -1.5540379e+00 -1.5539151e+00 -1.5537922e+00 -1.5536695e+00 -1.5535467e+00 -1.5534241e+00 -1.5533014e+00 -1.5531787e+00 -1.5530970e+00 -1.5529743e+00 -1.5528517e+00 -1.5527290e+00 -1.5526063e+00 -1.5524835e+00 -1.5523607e+00 -1.5522378e+00 -1.5521148e+00 -1.5519918e+00 -1.5518686e+00 -1.5517453e+00 -1.5516220e+00 -1.5514985e+00 -1.5513748e+00 -1.5512510e+00 -1.5511271e+00 -1.5510030e+00 -1.5508788e+00 -1.5507543e+00 -1.5506297e+00 -1.5505049e+00 -1.5503799e+00 -1.5502548e+00 -1.5501294e+00 -1.5500038e+00 -1.5498780e+00 -1.5497520e+00 -1.5496257e+00 -1.5494992e+00 -1.5493726e+00 -1.5492457e+00 -1.5491185e+00 -1.5489911e+00 -1.5489061e+00 -1.5487784e+00 -1.5486504e+00 -1.5485222e+00 -1.5483938e+00 -1.5482651e+00 -1.5481362e+00 -1.5480071e+00 -1.5478778e+00 -1.5477483e+00 -1.5476186e+00 -1.5474886e+00 -1.5473585e+00 -1.5472282e+00 -1.5470976e+00 -1.5469669e+00 -1.5468360e+00 -1.5467050e+00 -1.5465738e+00 -1.5464424e+00 -1.5463109e+00 -1.5461792e+00
-1.5801492e+00 -1.5799722e+00 -1.5798395e+00 -1.5796626e+00 -1.5795298e+00 -1.5793971e+00 -1.5792202e+00 -1.5790434e+00 -1.5789108e+00 -1.5787341e+00 -1.5785576e+00 -1.5784252e+00 -1.5782490e+00 -1.5780729e+00 -1.5778970e+00 -1.5777214e+00 -1.5775460e+00 -1.5773271e+00 -1.5771523e+00 -1.5769343e+00 -1.5767602e+00 -1.5765431e+00 -1.5763265e+00 -1.5761105e+00 -1.5758951e+00 -1.5756375e+00 -1.5753807e+00 -1.5751248e+00 -1.5748698e+00 -1.5745735e+00 -1.5742785e+00 -1.5739846e+00 -1.5736501e+00 -1.5732755e+00 -1.5729026e+00 -1.5724899e+00 -1.5720376e+00 -1.5715867e+00 -1.5710958e+00 -1.5706052e+00 -1.5701142e+00 -1.5696633e+00 -1.5692111e+00 -1.5687984e+00 -1.5684254e+00 -1.5680509e+00 -1.5677164e+00 -1.5674225e+00 -1.5671274e+00 -1.5668311e+00 -1.5665762e+00 -1.5663203e+00 -1.5660635e+00 -1.5658058e+00 -1.5655904e+00 -1.5653745e+00 -1.5651579e+00 -1.5649408e+00 -1.5647667e+00 -1.5645487e+00 -1.5643739e+00 -1.5641550e+00 -1.5639796e+00 -1.5638040e+00 -1.5636281e+00 -1.5634520e+00 -1.5632757e+00 -1.5631434e+00 -1.5629669e+00 -1.5627902e+00 -1.5626576e+00 -1.5624808e+00 -1.5623039e+00 -1.5621711e+00 -1.5620384e+00 -1.5618614e+00 -1.5617287e+00 -1.5615518e+00 -1.5614192e+00 -1.5612865e+00 -1.5611540e+00 -1.5609773e+00 -1.5608449e+00 -1.5607126e+00 -1.5605804e+00 -1.5604483e+00 -1.5603163e+00 -1.5601405e+00 -1.5600087e+00 -1.5598772e+00 -1.5597457e+00 -1.5596145e+00 -1.5594834e+00 -1.5593524e+00 -1.5592216e+00 -1.5590911e+00 -1.5589607e+00 -1.5588305e+00 -1.5587005e+00 -1.5585706e+00 -1.5584411e+00 -1.5583117e+00 -1.5581825e+00 -1.5580536e+00 -1.5579248e+00 -1.5577963e+00 -1.5576680e+00 -1.5575400e+00 -1.5574122e+00 -1.5572846e+00 -1.5571572e+00 -1.5570301e+00 -1.5569032e+00 -1.5568187e+00 -1.5566921e+00 -1.5565658e+00 -1.5564397e+00 -1.5563139e+00 -1.5561882e+00 -1.5560627e+00 -1.5559375e+00 -1.5558124e+00 -1.5556876e+00 -1.5555629e+00 -1.5554384e+00 -1.5553141e+00 -1.5551900e+00 -1.5550660e+00 -1.5549422e+00 -1.5548185e+00 -1.5546949e+00 -1.5545715e+00 -1.5544482e+00 -1.5543250e+00 -1.5542019e+00 -1.5540789e+00 -1.5539560e+00 -1.5258089e+00 -1.5021382e+00 -1.4831514e+00 -1.4688648e+00 -1.4592906e+00 -1.4544369e+00 -1.4542734e+00 -1.4588818e+00 -1.4682107e+00 -1.4822519e+00 -1.5009932e+00 -1.5244183e+00 -1.5523197e+00 -1.5521968e+00 -1.5520738e+00 -1.5519507e+00 -1.5518275e+00 -1.5517042e+00 -1.5515808e+00 -1.5514573e+00 -1.5513336e+00 -1.5512097e+00 -1.5510858e+00 -1.5509616e+00 -1.5508373e+00 -1.5507128e+00 -1.5505882e+00 -1.5504633e+00 -1.5503382e+00 -1.5502130e+00 -1.5500875e+00 -1.5499619e+00 -1.5498360e+00 -1.5497099e+00 -1.5495836e+00 -1.5494570e+00 -1.5493726e+00 -1.5492457e+00 -1.5491185e+00 -1.5489911e+00 -1.5488636e+00 -1.5487357e+00 -1.5486077e+00 -1.5484794e+00 -1.5483509e+00 -1.5482222e+00 -1.5480932e+00 -1.5479641e+00 -1.5478347e+00 -1.5477051e+00 -1.5475753e+00 -1.5474453e+00 -1.5473151e+00 -1.5471847e+00 -1.5470541e+00 -1.5469233e+00 -1.5467924e+00 -1.5466613e+00 -1.5465300e+00 -1.5463986e+00 -1.5462670e+00 -1.5461353e+00
-1.5800607e+00 -1.5799280e+00 -1.5797510e+00 -1.5796183e+00 -1.5794856e+00 -1.5793087e+00 -1.5791760e+00 -1.5789992e+00 -1.5788224e+00 -1.5786900e+00 -1.5785134e+00 -1.5783371e+00 -1.5781609e+00 -1.5779849e+00 -1.5778092e+00 -1.5776336e+00 -1.5774584e+00 -1.5772834e+00 -1.5770650e+00 -1.5768907e+00 -1.5766733e+00 -1.5764564e+00 -1.5762400e+00 -1.5760243e+00 -1.5758091e+00 -1.5755518e+00 -1.5753380e+00 -1.5750822e+00 -1.5747851e+00 -1.5745313e+00 -1.5741944e+00 -1.5739008e+00 -1.5735667e+00 -1.5731925e+00 -1.5728199e+00 -1.5724075e+00 -1.5719966e+00 -1.5715458e+00 -1.5710958e+00 -1.5706052e+00 -1.5701552e+00 -1.5697044e+00 -1.5692934e+00 -1.5688811e+00 -1.5685085e+00 -1.5681343e+00 -1.5678002e+00 -1.5675066e+00 -1.5671697e+00 -1.5669159e+00 -1.5666187e+00 -1.5663630e+00 -1.5661492e+00 -1.5658918e+00 -1.5656767e+00 -1.5654609e+00 -1.5652446e+00 -1.5650277e+00 -1.5648103e+00 -1.5646359e+00 -1.5644176e+00 -1.5642426e+00 -1.5640673e+00 -1.5638918e+00 -1.5637161e+00 -1.5635401e+00 -1.5633639e+00 -1.5631875e+00 -1.5630110e+00 -1.5628785e+00 -1.5627018e+00 -1.5625250e+00 -1.5623923e+00 -1.5622154e+00 -1.5620827e+00 -1.5619499e+00 -1.5617730e+00 -1.5616403e+00 -1.5614634e+00 -1.5613307e+00 -1.5611982e+00 -1.5610656e+00 -1.5608891e+00 -1.5607567e+00 -1.5606245e+00 -1.5604923e+00 -1.5603603e+00 -1.5602283e+00 -1.5600965e+00 -1.5599210e+00 -1.5597895e+00 -1.5596582e+00 -1.5595270e+00 -1.5593960e+00 -1.5592652e+00 -1.5591346e+00 -1.5590041e+00 -1.5588738e+00 -1.5587438e+00 -1.5586139e+00 -1.5584842e+00 -1.5583548e+00 -1.5582255e+00 -1.5580965e+00 -1.5579677e+00 -1.5578391e+00 -1.5577108e+00 -1.5575827e+00 -1.5574548e+00 -1.5573271e+00 -1.5571996e+00 -1.5570724e+00 -1.5569454e+00 -1.5568187e+00 -1.5566921e+00 -1.5565658e+00 -1.5564397e+00 -1.5563139e+00 -1.5561882e+00 -1.5560627e+00 -1.5559375e+00 -1.5558124e+00 -1.5556876e+00 -1.5555629e+00 -1.5554384e+00 -1.5553141e+00 -1.5551900e+00 -1.5189633e+00 -1.4495666e+00 -1.3845228e+00 -1.3238842e+00 -1.2677005e+00 -1.2160181e+00 -1.1688799e+00 -1.1263257e+00 -1.0883915e+00 -1.0551098e+00 -1.0265091e+00 -1.0026142e+00 -9.8344590e-01 -9.6902080e-01 -9.5935157e-01 -9.5444666e-01 -9.5428314e-01 -9.5894275e-01 -9.6836664e-01 -9.8254634e-01 -1.0014692e+00 -1.0251185e+00 -1.0534735e+00 -1.0865094e+00 -1.1241976e+00 -1.1665056e+00 -1.2133974e+00 -1.2648333e+00 -1.3207701e+00 -1.3811616e+00 -1.4459580e+00 -1.5151070e+00 -1.5510858e+00 -1.5509616e+00 -1.5508373e+00 -1.5507128e+00 -1.5505882e+00 -1.5504633e+00 -1.5503382e+00 -1.5502130e+00 -1.5500875e+00 -1.5499619e+00 -1.5498360e+00 -1.5497099e+00 -1.5495836e+00 -1.5494570e+00 -1.5493303e+00 -1.5492033e+00 -1.5490761e+00 -1.5489486e+00 -1.5488210e+00 -1.5486931e+00 -1.5485649e+00 -1.5484366e+00 -1.5483080e+00 -1.5481792e+00 -1.5480502e+00 -1.5479210e+00 -1.5477915e+00 -1.5476618e+00 -1.5475320e+00 -1.5474019e+00 -1.5472716e+00 -1.5471412e+00 -1.5470105e+00 -1.5468797e+00 -1.5467487e+00 -1.5466175e+00 -1.5464862e+00 -1.5463547e+00 -1.5461792e+00 -1.5460474e+00
-1.5800165e+00 -1.5798395e+00 -1.5797068e+00 -1.5795741e+00 -1.5793971e+00 -1.5792644e+00 -1.5790876e+00 -1.5789108e+00 -1.5787783e+00 -1.5786017e+00 -1.5784252e+00 -1.5782930e+00 -1.5781169e+00 -1.5779410e+00 -1.5777652e+00 -1.5775898e+00 -1.5773708e+00 -1.5771960e+00 -1.5770214e+00 -1.5768037e+00 -1.5765865e+00 -1.5764131e+00 -1.5761969e+00 -1.5759382e+00 -1.5757232e+00 -1.5755089e+00 -1.5752526e+00 -1.5749972e+00 -1.5747004e+00 -1.5744469e+00 -1.5741524e+00 -1.5738172e+00 -1.5734834e+00 -1.5731510e+00 -1.5727786e+00 -1.5723664e+00 -1.5719556e+00 -1.5715458e+00 -1.5710958e+00 -1.5706052e+00 -1.5701552e+00 -1.5697454e+00 -1.5693346e+00 -1.5689224e+00 -1.5685499e+00 -1.5682176e+00 -1.5678838e+00 -1.5675486e+00 -1.5672540e+00 -1.5670006e+00 -1.5667038e+00 -1.5664484e+00 -1.5661920e+00 -1.5659777e+00 -1.5657628e+00 -1.5655041e+00 -1.5652879e+00 -1.5651145e+00 -1.5648973e+00 -1.5646795e+00 -1.5645050e+00 -1.5643301e+00 -1.5641112e+00 -1.5639357e+00 -1.5637600e+00 -1.5635841e+00 -1.5634079e+00 -1.5632757e+00 -1.5630993e+00 -1.5629227e+00 -1.5627902e+00 -1.5626134e+00 -1.5624365e+00 -1.5623039e+00 -1.5621269e+00 -1.5619942e+00 -1.5618614e+00 -1.5616845e+00 -1.5615518e+00 -1.5614192e+00 -1.5612423e+00 -1.5611098e+00 -1.5609773e+00 -1.5608449e+00 -1.5606685e+00 -1.5605363e+00 -1.5604043e+00 -1.5602723e+00 -1.5601405e+00 -1.5600087e+00 -1.5598772e+00 -1.5597457e+00 -1.5595707e+00 -1.5594397e+00 -1.5593088e+00 -1.5591781e+00 -1.5590476e+00 -1.5589172e+00 -1.5587871e+00 -1.5586572e+00 -1.5585274e+00 -1.5583979e+00 -1.5582686e+00 -1.5581395e+00 -1.5580106e+00 -1.5578820e+00 -1.5577535e+00 -1.5576253e+00 -1.5574974e+00 -1.5573696e+00 -1.5572421e+00 -1.5571148e+00 -1.5569877e+00 -1.5568609e+00 -1.5567343e+00 -1.5566079e+00 -1.5564817e+00 -1.5563558e+00 -1.5562301e+00 -1.5561045e+00 -1.5559792e+00 -1.5329278e+00 -1.4379006e+00 -1.3468762e+00 -1.2599236e+00 -1.1771096e+00 -1.0984989e+00 -1.0241539e+00 -9.5413425e-01 -8.8849693e-01 -8.2727895e-01 -7.7059685e-01 -7.1845187e-01 -6.7088833e-01 -6.2794706e-01 -5.8966521e-01 -5.5607614e-01 -5.2720935e-01 -5.0309029e-01 -4.8374036e-01 -4.6917679e-01 -4.5941257e-01 -4.5445643e-01 -4.5429290e-01 -4.5900374e-01 -4.6852263e-01 -4.8284081e-01 -5.0194526e-01 -5.2581874e-01 -5.5443985e-01 -5.8778308e-01 -6.2581893e-01 -6.6851403e-01 -7.1583119e-01 -7.6772957e-01 -8.2416483e-01 -8.8505330e-01 -9.5044316e-01 -1.0202151e+00 -1.0943120e+00 -1.1726743e+00 -1.2552395e+00 -1.3419431e+00 -1.4327180e+00 -1.5274954e+00 -1.5502965e+00 -1.5501712e+00 -1.5500457e+00 -1.5499199e+00 -1.5497940e+00 -1.5496678e+00 -1.5495414e+00 -1.5494148e+00 -1.5492880e+00 -1.5491609e+00 -1.5490336e+00 -1.5489061e+00 -1.5487784e+00 -1.5486504e+00 -1.5485222e+00 -1.5483938e+00 -1.5482651e+00 -1.5481362e+00 -1.5480071e+00 -1.5478778e+00 -1.5477483e+00 -1.5476186e+00 -1.5474886e+00 -1.5473585e+00 -1.5472282e+00 -1.5470976e+00 -1.5469669e+00 -1.5468360e+00 -1.5467050e+00 -1.5465300e+00 -1.5463986e+00 -1.5462670e+00 -1.5461353e+00 -1.5460034e+00
-1.5799280e+00 -1.5797953e+00 -1.5796626e+00 -1.5794856e+00 -1.5793529e+00 -1.5791760e+00 -1.5790434e+00 -1.5788666e+00 -1.5786900e+00 -1.5785576e+00 -1.5783812e+00 -1.5782049e+00 -1.5780289e+00 -1.5778531e+00 -1.5776775e+00 -1.5775022e+00 -1.5773271e+00 -1.5771087e+00 -1.5769343e+00 -1.5767167e+00 -1.5765431e+00 -1.5763265e+00 -1.5761105e+00 -1.5758951e+00 -1.5756375e+00 -1.5754234e+00 -1.5751674e+00 -1.5749123e+00 -1.5746581e+00 -1.5743626e+00 -1.5740684e+00 -1.5737754e+00 -1.5734418e+00 -1.5730681e+00 -1.5727373e+00 -1.5723253e+00 -1.5719145e+00 -1.5715049e+00 -1.5710549e+00 -1.5706461e+00 -1.5701961e+00 -1.5697864e+00 -1.5693757e+00 -1.5689637e+00 -1.5686328e+00 -1.5682592e+00 -1.5679256e+00 -1.5676326e+00 -1.5673383e+00 -1.5670429e+00 -1.5667887e+00 -1.5665336e+00 -1.5662776e+00 -1.5660635e+00 -1.5658058e+00 -1.5655904e+00 -1.5653745e+00 -1.5651579e+00 -1.5649842e+00 -1.5647667e+00 -1.5645923e+00 -1.5643739e+00 -1.5641988e+00 -1.5640235e+00 -1.5638479e+00 -1.5636721e+00 -1.5634960e+00 -1.5633198e+00 -1.5631434e+00 -1.5630110e+00 -1.5628344e+00 -1.5626576e+00 -1.5625250e+00 -1.5623481e+00 -1.5622154e+00 -1.5620384e+00 -1.5619057e+00 -1.5617730e+00 -1.5615960e+00 -1.5614634e+00 -1.5613307e+00 -1.5611540e+00 -1.5610215e+00 -1.5608891e+00 -1.5607567e+00 -1.5605804e+00 -1.5604483e+00 -1.5603163e+00 -1.5601844e+00 -1.5600526e+00 -1.5599210e+00 -1.5597895e+00 -1.5596582e+00 -1.5595270e+00 -1.5593524e+00 -1.5592216e+00 -1.5590911e+00 -1.5589607e+00 -1.5588305e+00 -1.5587005e+00 -1.5585706e+00 -1.5584411e+00 -1.5583117e+00 -1.5581825e+00 -1.5580536e+00 -1.5579248e+00 -1.5577963e+00 -1.5576680e+00 -1.5575400e+00 -1.5574122e+00 -1.5572846e+00 -1.5571572e+00 -1.5570301e+00 -1.5569032e+00 -1.5567765e+00 -1.5566500e+00 -1.5565238e+00 -1.4644513e+00 -1.3532979e+00 -1.2458651e+00 -1.1422304e+00 -1.0424324e+00 -9.4664607e-01 -8.5488333e-01 -7.6721493e-01 -6.8370958e-01 -6.0443372e-01 -5.2945133e-01 -4.5882379e-01 -3.9260969e-01 -3.3086465e-01 -2.7364115e-01 -2.2098841e-01 -1.7295215e-01 -1.2956840e-01 -9.0938866e-02 -5.7042476e-02 -2.7909558e-02 -3.5663354e-03  1.5965173e-02  3.0667228e-02  4.0526440e-02  4.5533810e-02  4.5697335e-02  4.0935265e-02  3.1321391e-02  1.6864729e-02 -2.4213063e-03 -2.6518957e-02 -5.5406181e-02 -8.9056737e-02 -1.2744027e-01 -1.7049575e-01 -2.1828555e-01 -2.7069162e-01 -3.2766820e-01 -3.8916606e-01 -4.5513269e-01 -5.2551247e-01 -6.0024679e-01 -6.7927426e-01 -7.6253087e-01 -8.4995017e-01 -9.4146345e-01 -1.0369999e+00 -1.1364642e+00 -1.2398481e+00 -1.3470297e+00 -1.4579316e+00 -1.5497520e+00 -1.5496257e+00 -1.5494992e+00 -1.5493726e+00 -1.5492457e+00 -1.5491185e+00 -1.5489911e+00 -1.5488636e+00 -1.5487357e+00 -1.5486077e+00 -1.5484794e+00 -1.5483509e+00 -1.5482222e+00 -1.5480932e+00 -1.5479641e+00 -1.5478347e+00 -1.5477051e+00 -1.5475753e+00 -1.5474453e+00 -1.5473151e+00 -1.5471847e+00 -1.5470541e+00 -1.5469233e+00 -1.5467487e+00 -1.5466175e+00 -1.5464862e+00 -1.5463547e+00 -1.5462231e+00 -1.5460913e+00 -1.5459595e+00
-1.5798838e+00 -1.5797510e+00 -1.5795741e+00 -1.5794414e+00 -1.5792644e+00 -1.5791318e+00 -1.5789550e+00 -1.5788224e+00 -1.5786458e+00 -1.5784693e+00 -1.5782930e+00 -1.5781169e+00 -1.5779849e+00 -1.5778092e+00 -1.5775898e+00 -1.5774146e+00 -1.5772397e+00 -1.5770650e+00 -1.5768472e+00 -1.5766733e+00 -1.5764564e+00 -1.5762400e+00 -1.5760243e+00 -1.5758091e+00 -1.5755946e+00 -1.5753380e+00 -1.5750822e+00 -1.5748274e+00 -1.5745735e+00 -1.5742785e+00 -1.5739846e+00 -1.5736918e+00 -1.5733586e+00 -1.5730267e+00 -1.5726548e+00 -1.5722841e+00 -1.5719145e+00 -1.5714639e+00 -1.5710549e+00 -1.5706461e+00 -1.5702370e+00 -1.5697864e+00 -1.5694168e+00 -1.5690462e+00 -1.5686742e+00 -1.5683423e+00 -1.5680091e+00 -1.5677164e+00 -1.5674225e+00 -1.5671274e+00 -1.5668735e+00 -1.5666187e+00 -1.5663630e+00 -1.5661064e+00 -1.5658918e+00 -1.5656767e+00 -1.5654609e+00 -1.5652446e+00 -1.5650277e+00 -1.5648538e+00 -1.5646359e+00 -1.5644613e+00 -1.5642864e+00 -1.5641112e+00 -1.5638918e+00 -1.5637161e+00 -1.5635841e+00 -1.5634079e+00 -1.5632316e+00 -1.5630552e+00 -1.5628785e+00 -1.5627460e+00 -1.5625692e+00 -1.5624365e+00 -1.5622596e+00 -1.5621269e+00 -1.5619499e+00 -1.5618172e+00 -1.5616845e+00 -1.5615076e+00 -1.5613749e+00 -1.5612423e+00 -1.5610656e+00 -1.5609332e+00 -1.5608008e+00 -1.5606685e+00 -1.5605363e+00 -1.5603603e+00 -1.5602283e+00 -1.5600965e+00 -1.5599649e+00 -1.5598333e+00 -1.5597020e+00 -1.5595707e+00 -1.5594397e+00 -1.5593088e+00 -1.5591346e+00 -1.5590041e+00 -1.5588738e+00 -1.5587438e+00 -1.5586139e+00 -1.5584842e+00 -1.5583548e+00 -1.5582255e+00 -1.5580965e+00 -1.5579677e+00 -1.5578391e+00 -1.5577108e+00 -1.5575827e+00 -1.5574548e+00 -1.5573271e+00 -1.5571996e+00 -1.5570724e+00 -1.4611628e+00 -1.3350457e+00 -1.2123315e+00 -1.0930732e+00 -9.7743958e-01 -8.6545873e-01 -7.5721116e-01 -6.5277619e-01 -5.5223168e-01 -4.5565392e-01 -3.6311744e-01 -2.7469485e-01 -1.9045665e-01 -1.1047105e-01 -3.4803786e-02  3.6486676e-02  1.0327755e-01  1.6556675e-01  2.2330033e-01  2.7642771e-01  3.2490186e-01  3.6867943e-01  4.0772092e-01  4.4199119e-01  4.7139023e-01  4.9595762e-01  5.1567071e-01  5.3051124e-01  5.4046545e-01  5.4552405e-01  5.4568757e-01  5.4087427e-01  5.3116541e-01  5.1657026e-01  4.9710265e-01  4.7278083e-01  4.4362749e-01  4.0968503e-01  3.7088959e-01  3.2735826e-01  2.7913056e-01  2.2624986e-01  1.6876320e-01  1.0672119e-01  4.0177771e-02 -3.0782277e-02 -1.0620136e-01 -1.8593845e-01 -2.6992780e-01 -3.5810117e-01 -4.5038806e-01 -5.4671584e-01 -6.4700999e-01 -7.5119419e-01 -8.5919056e-01 -9.7091980e-01 -1.0863013e+00 -1.2052230e+00 -1.3276841e+00 -1.4535476e+00 -1.5492033e+00 -1.5490761e+00 -1.5489486e+00 -1.5488210e+00 -1.5486931e+00 -1.5485649e+00 -1.5484366e+00 -1.5483080e+00 -1.5481792e+00 -1.5480502e+00 -1.5479210e+00 -1.5477915e+00 -1.5476618e+00 -1.5475320e+00 -1.5474019e+00 -1.5472716e+00 -1.5471412e+00 -1.5469669e+00 -1.5468360e+00 -1.5467050e+00 -1.5465738e+00 -1.5464424e+00 -1.5463109e+00 -1.5461792e+00 -1.5460474e+00 -1.5459155e+00
-1.5798395e+00 -1.5796626e+00 -1.5795298e+00 -1.5793529e+00 -1.5792202e+00 -1.5790434e+00 -1.5789108e+00 -1.5787341e+00 -1.5785576e+00 -1.5784252e+00 -1.5782490e+00 -1.5780729e+00 -1.5778970e+00 -1.5777214e+00 -1.5775460e+00 -1.5773708e+00 -1.5771523e+00 -1.5769778e+00 -1.5768037e+00 -1.5765865e+00 -1.5763698e+00 -1.5761969e+00 -1.5759812e+00 -1.5757232e+00 -1.5755089e+00 -1.5752526e+00 -1.5750397e+00 -1.5747851e+00 -1.5744891e+00 -1.5742364e+00 -1.5739427e+00 -1.5736501e+00 -1.5733171e+00 -1.5729853e+00 -1.5726135e+00 -1.5722430e+00 -1.5718735e+00 -1.5714639e+00 -1.5710549e+00 -1.5706461e+00 -1.5702370e+00 -1.5698274e+00 -1.5694580e+00 -1.5690874e+00 -1.5687156e+00 -1.5683839e+00 -1.5680509e+00 -1.5677583e+00 -1.5674646e+00 -1.5672119e+00 -1.5669159e+00 -1.5666613e+00 -1.5664484e+00 -1.5661920e+00 -1.5659777e+00 -1.5657198e+00 -1.5655041e+00 -1.5653312e+00 -1.5651145e+00 -1.5648973e+00 -1.5647231e+00 -1.5645487e+00 -1.5643301e+00 -1.5641550e+00 -1.5639796e+00 -1.5638040e+00 -1.5636281e+00 -1.5634520e+00 -1.5632757e+00 -1.5631434e+00 -1.5629669e+00 -1.5627902e+00 -1.5626576e+00 -1.5624808e+00 -1.5623481e+00 -1.5621711e+00 -1.5620384e+00 -1.5618614e+00 -1.5617287e+00 -1.5615960e+00 -1.5614192e+00 -1.5612865e+00 -1.5611540e+00 -1.5609773e+00 -1.5608449e+00 -1.5607126e+00 -1.5605804e+00 -1.5604483e+00 -1.5603163e+00 -1.5601405e+00 -1.5600087e+00 -1.5598772e+00 -1.5597457e+00 -1.5596145e+00 -1.5594834e+00 -1.5593524e+00 -1.5592216e+00 -1.5590911e+00 -1.5589172e+00 -1.5587871e+00 -1.5586572e+00 -1.5585274e+00 -1.5583979e+00 -1.5582686e+00 -1.5581395e+00 -1.5580106e+00 -1.5578820e+00 -1.5577535e+00 -1.5576253e+00 -1.5182087e+00 -1.3784470e+00 -1.2417441e+00 -1.1081872e+00 -9.7783567e-01 -8.5085855e-01 -7.2728869e-01 -6.0721132e-01 -4.9071084e-01 -3.7787072e-01 -2.6877330e-01 -1.6349971e-01 -6.2129655e-02  3.5258752e-02  1.2858914e-01  2.1777783e-01  3.0271572e-01  3.8337545e-01  4.5968955e-01  5.3159325e-01  5.9902467e-01  6.6192501e-01  7.2024181e-01  7.7384382e-01  8.2275587e-01  8.6693340e-01  9.0633580e-01  9.4092654e-01  9.7069002e-01  9.9548157e-01  1.0153762e+00  1.0303553e+00  1.0404045e+00  1.0455143e+00  1.0456778e+00  1.0408133e+00  1.0310094e+00  1.0162758e+00  9.9662660e-01  9.7208062e-01  9.4264476e-01  9.0829991e-01  8.6914356e-01  8.2521227e-01  7.7654668e-01  7.2319134e-01  6.6520382e-01  6.0255076e-01  5.3536690e-01  4.6371106e-01  3.8764514e-01  3.0723392e-01  2.2254489e-01  1.3368856e-01  4.0607893e-02 -5.6530409e-02 -1.5764996e-01 -2.6267264e-01 -3.7151873e-01 -4.8410710e-01 -6.0035539e-01 -7.2018013e-01 -8.4349691e-01 -9.7022052e-01 -1.1002333e+00 -1.2335356e+00 -1.3699835e+00 -1.5094897e+00 -1.5486504e+00 -1.5485222e+00 -1.5483938e+00 -1.5482651e+00 -1.5481362e+00 -1.5480071e+00 -1.5478778e+00 -1.5477483e+00 -1.5476186e+00 -1.5474886e+00 -1.5473585e+00 -1.5471847e+00 -1.5470541e+00 -1.5469233e+00 -1.5467924e+00 -1.5466613e+00 -1.5465300e+00 -1.5463986e+00 -1.5462670e+00 -1.5461353e+00 -1.5459595e+00 -1.5458274e+00
-1.5797510e+00 -1.5796183e+00 -1.5794414e+00 -1.5793087e+00 -1.5791318e+00 -1.5789992e+00 -1.5788224e+00 -1.5786900e+00 -1.5785134e+00 -1.5783371e+00 -1.5781609e+00 -1.5779849e+00 -1.5778092e+00 -1.5776336e+00 -1.5774584e+00 -1.5772834e+00 -1.5771087e+00 -1.5768907e+00 -1.5767167e+00 -1.5764997e+00 -1.5763265e+00 -1.5761105e+00 -1.5758951e+00 -1.5756803e+00 -1.5754234e+00 -1.5752100e+00 -1.5749547e+00 -1.5747004e+00 -1.5744469e+00 -1.5741524e+00 -1.5738590e+00 -1.5735667e+00 -1.5732340e+00 -1.5729026e+00 -1.5725723e+00 -1.5722019e+00 -1.5718325e+00 -1.5714639e+00 -1.5710549e+00 -1.5706461e+00 -1.5702370e+00 -1.5698684e+00 -1.5694991e+00 -1.5691287e+00 -1.5687984e+00 -1.5684670e+00 -1.5681343e+00 -1.5678420e+00 -1.5675486e+00 -1.5672540e+00 -1.5670006e+00 -1.5667463e+00 -1.5664910e+00 -1.5662776e+00 -1.5660206e+00 -1.5658058e+00 -1.5655904e+00 -1.5653745e+00 -1.5652013e+00 -1.5649842e+00 -1.5648103e+00 -1.5645923e+00 -1.5644176e+00 -1.5642426e+00 -1.5640673e+00 -1.5638918e+00 -1.5637161e+00 -1.5635401e+00 -1.5633639e+00 -1.5631875e+00 -1.5630110e+00 -1.5628785e+00 -1.5627018e+00 -1.5625692e+00 -1.5623923e+00 -1.5622596e+00 -1.5620827e+00 -1.5619499e+00 -1.5617730e+00 -1.5616403e+00 -1.5615076e+00 -1.5613307e+00 -1.5611982e+00 -1.5610656e+00 -1.5609332e+00 -1.5607567e+00 -1.5606245e+00 -1.5604923e+00 -1.5603603e+00 -1.5602283e+00 -1.5600526e+00 -1.5599210e+00 -1.5597895e+00 -1.5596582e+00 -1.5595270e+00 -1.5593960e+00 -1.5592652e+00 -1.5591346e+00 -1.5590041e+00 -1.5588305e+00 -1.5587005e+00 -1.5585706e+00 -1.5584411e+00 -1.5583117e+00 -1.5581825e+00 -1.5580536e+00 -1.4780693e+00 -1.3287981e+00 -1.1823127e+00 -1.0387023e+00 -8.9805606e-01 -7.6043064e-01 -6.2601050e-01 -4.9482316e-01 -3.6695674e-01 -2.4249885e-01 -1.2153644e-01 -4.1556672e-03  1.0955821e-01  2.1952102e-01  3.2568950e-01  4.2784912e-01  5.2600944e-01  6.2009221e-01  7.1002115e-01  7.9572211e-01  8.7712329e-01  9.5418288e-01  1.0267045e+00  1.0947232e+00  1.1581787e+00  1.2170140e+00  1.2711755e+00  1.3206099e+00  1.3651874e+00  1.4049507e+00  1.4398623e+00  1.4503057e+00  1.4548665e+00  1.4585113e+00  1.4612842e+00  1.4631798e+00  1.4641943e+00  1.4643578e+00  1.4635886e+00  1.4619384e+00  1.4594109e+00  1.4560115e+00  1.4517782e+00  1.4415805e+00  1.4069148e+00  1.3673975e+00  1.3230663e+00  1.2739606e+00  1.2200458e+00  1.1614576e+00  1.0982493e+00  1.0304781e+00  9.5820439e-01  8.8147578e-01  8.0032322e-01  7.1487123e-01  6.2519164e-01  5.3135858e-01  4.3344837e-01  3.3153924e-01  2.2570541e-01  1.1599407e-01  2.5320937e-03 -1.1459634e-01 -2.3530598e-01 -3.5951065e-01 -4.8712340e-01 -6.1805662e-01 -7.5222217e-01 -8.8950744e-01 -1.0298981e+00 -1.1732523e+00 -1.3194811e+00 -1.4684954e+00 -1.5482222e+00 -1.5480932e+00 -1.5479641e+00 -1.5478347e+00 -1.5477051e+00 -1.5475753e+00 -1.5474453e+00 -1.5472716e+00 -1.5471412e+00 -1.5470105e+00 -1.5468797e+00 -1.5467487e+00 -1.5466175e+00 -1.5464862e+00 -1.5463547e+00 -1.5462231e+00 -1.5460474e+00 -1.5459155e+00 -1.5457834e+00
-1.5797068e+00 -1.5795298e+00 -1.5793971e+00 -1.5792202e+00 -1.5790876e+00 -1.5789108e+00 -1.5787783e+00 -1.5786017e+00 -1.5784252e+00 -1.5782930e+00 -1.5781169e+00 -1.5779410e+00 -1.5777652e+00 -1.5775898e+00 -1.5774146e+00 -1.5772397e+00 -1.5770214e+00 -1.5768472e+00 -1.5766299e+00 -1.5764564e+00 -1.5762400e+00 -1.5760243e+00 -1.5758091e+00 -1.5755946e+00 -1.5753807e+00 -1.5751248e+00 -1.5748698e+00 -1.5746158e+00 -1.5743626e+00 -1.5741104e+00 -1.5738172e+00 -1.5735251e+00 -1.5731925e+00 -1.5728612e+00 -1.5725311e+00 -1.5721608e+00 -1.5717915e+00 -1.5714230e+00 -1.5710549e+00 -1.5706461e+00 -1.5702780e+00 -1.5699094e+00 -1.5695401e+00 -1.5691699e+00 -1.5688397e+00 -1.5685085e+00 -1.5681759e+00 -1.5678838e+00 -1.5675906e+00 -1.5673383e+00 -1.5670852e+00 -1.5668311e+00 -1.5665762e+00 -1.5663203e+00 -1.5661064e+00 -1.5658918e+00 -1.5656767e+00 -1.5654609e+00 -1.5652446e+00 -1.5650711e+00 -1.5648538e+00 -1.5646795e+00 -1.5644613e+00 -1.5642864e+00 -1.5641112e+00 -1.5639357e+00 -1.5637600e+00 -1.5635841e+00 -1.5634079e+00 -1.5632757e+00 -1.5630993e+00 -1.5629227e+00 -1.5627902e+00 -1.5626134e+00 -1.5624808e+00 -1.5623039e+00 -1.5621711e+00 -1.5619942e+00 -1.5618614e+00 -1.5616845e+00 -1.5615518e+00 -1.5614192e+00 -1.5612423e+00 -1.5611098e+00 -1.5609773e+00 -1.5608449e+00 -1.5606685e+00 -1.5605363e+00 -1.5604043e+00 -1.5602723e+00 -1.5601405e+00 -1.5600087e+00 -1.5598333e+00 -1.5597020e+00 -1.5595707e+00 -1.5594397e+00 -1.5593088e+00 -1.5591781e+00 -1.5590476e+00 -1.5589172e+00 -1.5587438e+00 -1.5586139e+00 -1.5584842e+00 -1.4675708e+00 -1.3096591e+00 -1.1542505e+00 -1.0014353e+00 -8.5130400e-01 -7.0394724e-01 -5.5945560e-01 -4.1789059e-01 -2.7943677e-01 -1.4412239e-01 -1.2037627e-02  1.1672773e-01  2.4208437e-01  3.6394363e-01  4.8221756e-01  5.9684704e-01  7.0763327e-01  8.1457225e-01  9.1758055e-01  1.0165763e+00  1.1114794e+00  1.2022117e+00  1.2886640e+00  1.3707480e+00  1.4454474e+00  1.4584566e+00  1.4707313e+00  1.4822765e+00  1.4929941e+00  1.5029088e+00  1.5120014e+00  1.5202939e+00  1.5276710e+00  1.5341772e+00  1.5397997e+00  1.5445277e+00  1.5483782e+00  1.5512707e+00  1.5532464e+00  1.5543018e+00  1.5544653e+00  1.5536552e+00  1.5519248e+00  1.5492778e+00  1.5457545e+00  1.5412722e+00  1.5358954e+00  1.5296352e+00  1.5225040e+00  1.5145399e+00  1.5056939e+00  1.4960259e+00  1.4855553e+00  1.4743399e+00  1.4623129e+00  1.4495516e+00  1.3751005e+00  1.2932651e+00  1.2071449e+00  1.1166620e+00  1.0220088e+00  9.2326325e-01  8.2050559e-01  7.1381766e-01  6.0328291e-01  4.8898939e-01  3.7096793e-01  2.4936160e-01  1.2425833e-01 -4.2532053e-03 -1.3608369e-01 -2.7114334e-01 -4.0934197e-01 -5.5056602e-01 -6.9480141e-01 -8.4190146e-01 -9.9177557e-01 -1.1443332e+00 -1.2994838e+00 -1.4571370e+00 -1.5477915e+00 -1.5476618e+00 -1.5475320e+00 -1.5473585e+00 -1.5472282e+00 -1.5470976e+00 -1.5469669e+00 -1.5468360e+00 -1.5467050e+00 -1.5465738e+00 -1.5464424e+00 -1.5462670e+00 -1.5461353e+00 -1.5460034e+00 -1.5458715e+00 -1.5457394e+00
-1.5796183e+00 -1.5794856e+00 -1.5793087e+00 -1.5791760e+00 -1.5789992e+00 -1.5788666e+00 -1.5786900e+00 -1.5785576e+00 -1.5783812e+00 -1.5782049e+00 -1.5780289e+00 -1.5778531e+00 -1.5776775e+00 -1.5775022e+00 -1.5773271e+00 -1.5771523e+00 -1.5769778e+00 -1.5767602e+00 -1.5765865e+00 -1.5763698e+00 -1.5761537e+00 -1.5759812e+00 -1.5757662e+00 -1.5755089e+00 -1.5752953e+00 -1.5750397e+00 -1.5748274e+00 -1.5745735e+00 -1.5743205e+00 -1.5740265e+00 -1.5737336e+00 -1.5734418e+00 -1.5731510e+00 -1.5728199e+00 -1.5724899e+00 -1.5721198e+00 -1.5717915e+00 -1.5714230e+00 -1.5710549e+00 -1.5706461e+00 -1.5702780e+00 -1.5699094e+00 -1.5695812e+00 -1.5692111e+00 -1.5688811e+00 -1.5685499e+00 -1.5682592e+00 -1.5679674e+00 -1.5676745e+00 -1.5673804e+00 -1.5671274e+00 -1.5668735e+00 -1.5666613e+00 -1.5664057e+00 -1.5661920e+00 -1.5659348e+00 -1.5657198e+00 -1.5655473e+00 -1.5653312e+00 -1.5651145e+00 -1.5649408e+00 -1.5647231e+00 -1.5645487e+00 -1.5643739e+00 -1.5641988e+00 -1.5640235e+00 -1.5638479e+00 -1.5636721e+00 -1.5634960e+00 -1.5633198e+00 -1.5631434e+00 -1.5630110e+00 -1.5628344e+00 -1.5627018e+00 -1.5625250e+00 -1.5623923e+00 -1.5622154e+00 -1.5620827e+00 -1.5619057e+00 -1.5617730e+00 -1.5615960e+00 -1.5614634e+00 -1.5613307e+00 -1.5611540e+00 -1.5610215e+00 -1.5608891e+00 -1.5607567e+00 -1.5606245e+00 -1.5604483e+00 -1.5603163e+00 -1.5601844e+00 -1.5600526e+00 -1.5599210e+00 -1.5597457e+00 -1.5596145e+00 -1.5594834e+00 -1.5593524e+00 -1.5592216e+00 -1.5590911e+00 -1.5589607e+00 -1.4839494e+00 -1.3182554e+00 -1.1548284e+00 -9.9370525e-01 -8.3497720e-01 -6.7873576e-01 -5.2507264e-01 -3.7407970e-01 -2.2584893e-01 -8.0430990e-02  6.1959786e-02  2.0130900e-01  3.3752462e-01  4.7051486e-01  6.0018827e-01  7.2645386e-01  8.4922123e-01  9.6839122e-01  1.0838309e+00  1.1955015e+00  1.3033165e+00  1.4071904e+00  1.4552305e+00  1.4722842e+00  1.4887058e+00  1.5044647e+00  1.5195315e+00  1.5339149e+00  1.5474963e+00  1.5603044e+00  1.5723153e+00  1.5835066e+00  1.5938787e+00  1.6033483e+00  1.6119400e+00  1.6196379e+00  1.6264467e+00  1.6322930e+00  1.6372078e+00  1.6412187e+00  1.6442216e+00  1.6462714e+00  1.6473647e+00  1.6475282e+00  1.6466803e+00  1.6448758e+00  1.6421183e+00  1.6384347e+00  1.6337654e+00  1.6281649e+00  1.6216840e+00  1.6142322e+00  1.6058868e+00  1.5966638e+00  1.5866207e+00  1.5756765e+00  1.5639130e+00  1.5513526e+00  1.5380191e+00  1.5239668e+00  1.5091487e+00  1.4936389e+00  1.4774668e+00  1.4606630e+00  1.4129566e+00  1.3093334e+00  1.2017697e+00  1.0903507e+00  9.7516304e-01  8.5632979e-01  7.3381550e-01  6.0780343e-01  4.7838399e-01  3.4564818e-01  2.0968744e-01  7.0593571e-02 -7.1541407e-02 -2.1661758e-01 -3.6459149e-01 -5.1532712e-01 -6.6873249e-01 -8.2471574e-01 -9.8318517e-01 -1.1440493e+00 -1.3072168e+00 -1.4725642e+00 -1.5473151e+00 -1.5471847e+00 -1.5470541e+00 -1.5469233e+00 -1.5467924e+00 -1.5466613e+00 -1.5465300e+00 -1.5463547e+00 -1.5462231e+00 -1.5460913e+00 -1.5459595e+00 -1.5458274e+00 -1.5456513e+00
-1.5795741e+00 -1.5794414e+00 -1.5792644e+00 -1.5791318e+00 -1.5789550e+00 -1.5787783e+00 -1.5786458e+00 -1.5784693e+00 -1.5782930e+00 -1.5781169e+00 -1.5779849e+00 -1.5778092e+00 -1.5776336e+00 -1.5774584e+00 -1.5772834e+00 -1.5770650e+00 -1.5768907e+00 -1.5767167e+00 -1.5764997e+00 -1.5763265e+00 -1.5761105e+00 -1.5758951e+00 -1.5756803e+00 -1.5754662e+00 -1.5752100e+00 -1.5749972e+00 -1.5747427e+00 -1.5744891e+00 -1.5742364e+00 -1.5739846e+00 -1.5736918e+00 -1.5734002e+00 -1.5731096e+00 -1.5727786e+00 -1.5724487e+00 -1.5721198e+00 -1.5717506e+00 -1.5713821e+00 -1.5710140e+00 -1.5706870e+00 -1.5703189e+00 -1.5699504e+00 -1.5695812e+00 -1.5692523e+00 -1.5689224e+00 -1.5685914e+00 -1.5683008e+00 -1.5680091e+00 -1.5677164e+00 -1.5674646e+00 -1.5672119e+00 -1.5669583e+00 -1.5667038e+00 -1.5664910e+00 -1.5662348e+00 -1.5660206e+00 -1.5658058e+00 -1.5655904e+00 -1.5653745e+00 -1.5652013e+00 -1.5649842e+00 -1.5648103e+00 -1.5646359e+00 -1.5644176e+00 -1.5642426e+00 -1.5640673e+00 -1.5638918e+00 -1.5637161e+00 -1.5635841e+00 -1.5634079e+00 -1.5632316e+00 -1.5630552e+00 -1.5629227e+00 -1.5627460e+00 -1.5625692e+00 -1.5624365e+00 -1.5622596e+00 -1.5621269e+00 -1.5619942e+00 -1.5618172e+00 -1.5616845e+00 -1.5615076e+00 -1.5613749e+00 -1.5612423e+00 -1.5611098e+00 -1.5609332e+00 -1.5608008e+00 -1.5606685e+00 -1.5605363e+00 -1.5603603e+00 -1.5602283e+00 -1.5600965e+00 -1.5599649e+00 -1.5598333e+00 -1.5597020e+00 -1.5595270e+00 -1.5593960e+00 -1.5241951e+00 -1.3517539e+00 -1.1812271e+00 -1.0127063e+00 -8.4628293e-01 -6.8203072e-01 -5.2011136e-01 -3.6056850e-01 -2.0349492e-01 -4.8983624e-02  1.0287218e-01  2.5197913e-01  3.9826861e-01  5.4155180e-01  6.8180186e-01  8.1892521e-01  9.5282847e-01  1.0834185e+00  1.2106410e+00  1.3342641e+00  1.4453432e+00  1.4659989e+00  1.4861554e+00  1.5057769e+00  1.5248586e+00  1.5432906e+00  1.5610849e+00  1.5782095e+00  1.5946701e+00  1.6103456e+00  1.6252624e+00  1.6393939e+00  1.6527505e+00  1.6652155e+00  1.6768239e+00  1.6875554e+00  1.6974178e+00  1.7063159e+00  1.7142855e+00  1.7213506e+00  1.7273973e+00  1.7324792e+00  1.7365879e+00  1.7397360e+00  1.7418517e+00  1.7429787e+00  1.7431423e+00  1.7422605e+00  1.7403901e+00  1.7375693e+00  1.7337061e+00  1.7288698e+00  1.7230689e+00  1.7163316e+00  1.7086081e+00  1.6999563e+00  1.6904226e+00  1.6799380e+00  1.6685767e+00  1.6563591e+00  1.6433328e+00  1.6294493e+00  1.6147809e+00  1.5993542e+00  1.5832258e+00  1.5663508e+00  1.5488065e+00  1.5306248e+00  1.5118776e+00  1.4925074e+00  1.4726027e+00  1.4521992e+00  1.3413726e+00  1.2180027e+00  1.0911183e+00  9.6078236e-01  8.2713368e-01  6.9026537e-01  5.5027080e-01  4.0724356e-01  2.6129605e-01  1.1244611e-01 -3.9152240e-02 -1.9340564e-01 -3.5022089e-01 -5.0950498e-01 -6.7116515e-01 -8.3507113e-01 -1.0012343e+00 -1.1694947e+00 -1.3397605e+00 -1.5119404e+00 -1.5468797e+00 -1.5467487e+00 -1.5465738e+00 -1.5464424e+00 -1.5463109e+00 -1.5461792e+00 -1.5460474e+00 -1.5459155e+00 -1.5457394e+00 -1.5456072e+00
-1.5795298e+00 -1.5793529e+00 -1.5792202e+00 -1.5790434e+00 -1.5788666e+00 -1.5787341e+00 -1.5785576e+00 -1.5784252e+00 -1.5782490e+00 -1.5780729e+00 -1.5778970e+00 -1.5777214e+00 -1.5775460e+00 -1.5773708e+00 -1.5771960e+00 -1.5770214e+00 -1.5768037e+00 -1.5766299e+00 -1.5764564e+00 -1.5762400e+00 -1.5760243e+00 -1.5758091e+00 -1.5755946e+00 -1.5753807e+00 -1.5751674e+00 -1.5749123e+00 -1.5747004e+00 -1.5744469e+00 -1.5741944e+00 -1.5739008e+00 -1.5736084e+00 -1.5733586e+00 -1.5730267e+00 -1.5727373e+00 -1.5724075e+00 -1.5720787e+00 -1.5717506e+00 -1.5713821e+00 -1.5710140e+00 -1.5706870e+00 -1.5703189e+00 -1.5699504e+00 -1.5696223e+00 -1.5692934e+00 -1.5689637e+00 -1.5686742e+00 -1.5683423e+00 -1.5680926e+00 -1.5678002e+00 -1.5675066e+00 -1.5672540e+00 -1.5670006e+00 -1.5667887e+00 -1.5665336e+00 -1.5663203e+00 -1.5661064e+00 -1.5658918e+00 -1.5656767e+00 -1.5654609e+00 -1.5652446e+00 -1.5650711e+00 -1.5648973e+00 -1.5646795e+00 -1.5645050e+00 -1.5643301e+00 -1.5641550e+00 -1.5639796e+00 -1.5638040e+00 -1.5636281e+00 -1.5634520e+00 -1.5632757e+00 -1.5631434e+00 -1.5629669e+00 -1.5628344e+00 -1.5626576e+00 -1.5624808e+00 -1.5623481e+00 -1.5621711e+00 -1.5620384e+00 -1.5619057e+00 -1.5617287e+00 -1.5615960e+00 -1.5614634e+00 -1.5612865e+00 -1.5611540e+00 -1.5610215e+00 -1.5608449e+00 -1.5607126e+00 -1.5605804e+00 -1.5604483e+00 -1.5602723e+00 -1.5601405e+00 -1.5600087e+00 -1.5598772e+00 -1.5597457e+00 -1.4069218e+00 -1.2302471e+00 -1.0553295e+00 -8.8220850e-01 -7.1097653e-01 -5.4172605e-01 -3.7454983e-01 -2.0950254e-01 -4.6789793e-02  1.1356590e-01  2.7147054e-01  4.2682982e-01  5.7954922e-01  7.2953401e-01  8.7670185e-01  1.0208814e+00  1.1620372e+00  1.3000743e+00  1.4348976e+00  1.4647640e+00  1.4877278e+00  1.5102247e+00  1.5322596e+00  1.5537948e+00  1.5748336e+00  1.5952433e+00  1.6150439e+00  1.6342015e+00  1.6526830e+00  1.6704801e+00  1.6874947e+00  1.7037413e+00  1.7192299e+00  1.7338361e+00  1.7475955e+00  1.7604856e+00  1.7725072e+00  1.7835701e+00  1.7937046e+00  1.8029212e+00  1.8111234e+00  1.8183534e+00  1.8246278e+00  1.8298511e+00  1.8340731e+00  1.8373146e+00  1.8394857e+00  1.8406411e+00  1.8408047e+00  1.8398945e+00  1.8379688e+00  1.8350545e+00  1.8310780e+00  1.8261003e+00  1.8201535e+00  1.8131695e+00  1.8052134e+00  1.7963253e+00  1.7864374e+00  1.7756213e+00  1.7639292e+00  1.7512866e+00  1.7377749e+00  1.7234168e+00  1.7082595e+00  1.6922618e+00  1.6754963e+00  1.6580321e+00  1.6398007e+00  1.6208937e+00  1.6013440e+00  1.5811856e+00  1.5604826e+00  1.5391997e+00  1.5174176e+00  1.4951738e+00  1.4725484e+00  1.4429363e+00  1.3083677e+00  1.1705859e+00  1.0296856e+00  8.8576222e-01  7.3893656e-01  5.8920892e-01  4.3674712e-01  2.8164588e-01  1.2399973e-01 -3.6097062e-02 -1.9855048e-01 -3.6325136e-01 -5.3016730e-01 -6.9915711e-01 -8.7012804e-01 -1.0429876e+00 -1.2176435e+00 -1.3939686e+00 -1.5465300e+00 -1.5463986e+00 -1.5462670e+00 -1.5461353e+00 -1.5460034e+00 -1.5458274e+00 -1.5456953e+00 -1.5455631e+00
-1.5794414e+00 -1.5793087e+00 -1.5791318e+00 -1.5789992e+00 -1.5788224e+00 -1.5786458e+00 -1.5785134e+00 -1.5783371e+00 -1.5781609e+00 -1.5779849e+00 -1.5778531e+00 -1.5776775e+00 -1.5775022e+00 -1.5773271e+00 -1.5771087e+00 -1.5769343e+00 -1.5767602e+00 -1.5765431e+00 -1.5763698e+00 -1.5761537e+00 -1.5759812e+00 -1.5757662e+00 -1.5755518e+00 -1.5753380e+00 -1.5750822e+00 -1.5748698e+00 -1.5746158e+00 -1.5743626e+00 -1.5741104e+00 -1.5738590e+00 -1.5735667e+00 -1.5732755e+00 -1.5729853e+00 -1.5726960e+00 -1.5723664e+00 -1.5720376e+00 -1.5717096e+00 -1.5713821e+00 -1.5710140e+00 -1.5706870e+00 -1.5703189e+00 -1.5699914e+00 -1.5696633e+00 -1.5693346e+00 -1.5690049e+00 -1.5687156e+00 -1.5684254e+00 -1.5681343e+00 -1.5678420e+00 -1.5675906e+00 -1.5673383e+00 -1.5670852e+00 -1.5668311e+00 -1.5666187e+00 -1.5663630e+00 -1.5661492e+00 -1.5659348e+00 -1.5657198e+00 -1.5655473e+00 -1.5653312e+00 -1.5651579e+00 -1.5649408e+00 -1.5647667e+00 -1.5645923e+00 -1.5643739e+00 -1.5641988e+00 -1.5640235e+00 -1.5638479e+00 -1.5637161e+00 -1.5635401e+00 -1.5633639e+00 -1.5631875e+00 -1.5630552e+00 -1.5628785e+00 -1.5627018e+00 -1.5625692e+00 -1.5623923e+00 -1.5622596e+00 -1.5620827e+00 -1.5619499e+00 -1.5618172e+00 -1.5616403e+00 -1.5615076e+00 -1.5613749e+00 -1.5611982e+00 -1.5610656e+00 -1.5609332e+00 -1.5607567e+00 -1.5606245e+00 -1.5604923e+00 -1.5603603e+00 -1.5602283e+00 -1.4805107e+00 -1.2987785e+00 -1.1184419e+00 -9.3959377e-01 -7.6232682e-01 -5.8670625e-01 -4.1291273e-01 -2.4098209e-01 -7.1007855e-02  9.6916171e-02  2.6269588e-01  4.2625903e-01  5.8742517e-01  7.4615932e-01  9.0236594e-01  1.0559492e+00  1.2068130e+00  1.3548654e+00  1.4525489e+00  1.4778605e+00  1.5028711e+00  1.5275404e+00  1.5518627e+00  1.5757150e+00  1.5991051e+00  1.6219941e+00  1.6443836e+00  1.6661398e+00  1.6872823e+00  1.7077760e+00  1.7276239e+00  1.7466988e+00  1.7650263e+00  1.7825772e+00  1.7993470e+00  1.8152368e+00  1.8302697e+00  1.8444501e+00  1.8576738e+00  1.8699756e+00  1.8813637e+00  1.8917387e+00  1.9011419e+00  1.9095809e+00  1.9169700e+00  1.9233518e+00  1.9287298e+00  1.9330392e+00  1.9363550e+00  1.9385682e+00  1.9397455e+00  1.9399090e+00  1.9389770e+00  1.9370092e+00  1.9340206e+00  1.9299567e+00  1.9249062e+00  1.9187701e+00  1.9116270e+00  1.9035162e+00  1.8943594e+00  1.8842310e+00  1.8731720e+00  1.8611174e+00  1.8481412e+00  1.8342912e+00  1.8195064e+00  1.8038652e+00  1.7874273e+00  1.7701258e+00  1.7520479e+00  1.7332232e+00  1.7137094e+00  1.6934667e+00  1.6725757e+00  1.6510713e+00  1.6290184e+00  1.6063823e+00  1.5832456e+00  1.5596472e+00  1.5356639e+00  1.5112496e+00  1.4864943e+00  1.4614385e+00  1.3640112e+00  1.2163012e+00  1.0656947e+00  9.1236921e-01  7.5642078e-01  5.9794525e-01  4.3703816e-01  2.7382105e-01  1.0830136e-01 -5.9362262e-02 -2.2907570e-01 -4.0074517e-01 -5.7427716e-01 -7.4954847e-01 -9.2655310e-01 -1.1051386e+00 -1.2852122e+00 -1.4666812e+00 -1.5460474e+00 -1.5459155e+00 -1.5457834e+00 -1.5456513e+00 -1.5455190e+00
-1.5793971e+00 -1.5792202e+00 -1.5790876e+00 -1.5789108e+00 -1.5787783e+00 -1.5786017e+00 -1.5784252e+00 -1.5782490e+00 -1.5781169e+00 -1.5779410e+00 -1.5777652e+00 -1.5775898e+00 -1.5774146e+00 -1.5772397e+00 -1.5770650e+00 -1.5768907e+00 -1.5766733e+00 -1.5764997e+00 -1.5762833e+00 -1.5761105e+00 -1.5758951e+00 -1.5756803e+00 -1.5754662e+00 -1.5752526e+00 -1.5750397e+00 -1.5747851e+00 -1.5745735e+00 -1.5743205e+00 -1.5740684e+00 -1.5737754e+00 -1.5735251e+00 -1.5732340e+00 -1.5729439e+00 -1.5726548e+00 -1.5723253e+00 -1.5719966e+00 -1.5716686e+00 -1.5713412e+00 -1.5710140e+00 -1.5706870e+00 -1.5703598e+00 -1.5700323e+00 -1.5697044e+00 -1.5693757e+00 -1.5690462e+00 -1.5687570e+00 -1.5684670e+00 -1.5681759e+00 -1.5679256e+00 -1.5676326e+00 -1.5673804e+00 -1.5671274e+00 -1.5669159e+00 -1.5666613e+00 -1.5664484e+00 -1.5662348e+00 -1.5660206e+00 -1.5658058e+00 -1.5655904e+00 -1.5654177e+00 -1.5652013e+00 -1.5650277e+00 -1.5648103e+00 -1.5646359e+00 -1.5644613e+00 -1.5642864e+00 -1.5641112e+00 -1.5639357e+00 -1.5637600e+00 -1.5635841e+00 -1.5634520e+00 -1.5632757e+00 -1.5630993e+00 -1.5629227e+00 -1.5627902e+00 -1.5626134e+00 -1.5624808e+00 -1.5623039e+00 -1.5621711e+00 -1.5619942e+00 -1.5618614e+00 -1.5617287e+00 -1.5615518e+00 -1.5614192e+00 -1.5612865e+00 -1.5611098e+00 -1.5609773e+00 -1.5608449e+00 -1.5606685e+00 -1.5605363e+00 -1.3833625e+00 -1.1986453e+00 -1.0151021e+00 -8.3279967e-01 -6.5191539e-01 -4.7248884e-01 -2.9461361e-01 -1.1838346e-01  5.6135243e-02  2.2875763e-01  3.9944942e-01  5.6811578e-01  7.3466155e-01  8.9903489e-01  1.0610086e+00  1.2205703e+00  1.3776232e+00  1.4578382e+00  1.4849412e+00  1.5118665e+00  1.5384907e+00  1.5648175e+00  1.5908051e+00  1.6164532e+00  1.6416234e+00  1.6663295e+00  1.6905316e+00  1.7141906e+00  1.7372926e+00  1.7597323e+00  1.7815165e+00  1.8026456e+00  1.8229947e+00  1.8425881e+00  1.8614371e+00  1.8794062e+00  1.8965342e+00  1.9128379e+00  1.9281826e+00  1.9426163e+00  1.9561558e+00  1.9686791e+00  1.9802370e+00  1.9908403e+00  2.0003914e+00  2.0089376e+00  2.0164778e+00  2.0229492e+00  2.0284158e+00  2.0327814e+00  2.0361045e+00  2.0383875e+00  2.0395786e+00  2.0397421e+00  2.0387963e+00  2.0368405e+00  2.0337628e+00  2.0296427e+00  2.0245036e+00  2.0182780e+00  2.0110657e+00  2.0027657e+00  1.9934610e+00  1.9831866e+00  1.9718755e+00  1.9595994e+00  1.9463900e+00  1.9322041e+00  1.9171075e+00  1.9011353e+00  1.8842563e+00  1.8665366e+00  1.8480206e+00  1.8286774e+00  1.8085790e+00  1.7877847e+00  1.7662521e+00  1.7440644e+00  1.7212991e+00  1.6978933e+00  1.6739447e+00  1.6494925e+00  1.6245767e+00  1.5992686e+00  1.5735365e+00  1.5474657e+00  1.5210978e+00  1.4945152e+00  1.4676696e+00  1.3877125e+00  1.2309179e+00  1.0716150e+00  9.0990046e-01  7.4587335e-01  5.7958773e-01  4.1118190e-01  2.4075103e-01  6.8389940e-02 -1.0577981e-01 -2.8174786e-01 -4.5936064e-01 -6.3852444e-01 -8.1914567e-01 -1.0010969e+00 -1.1843764e+00 -1.3688297e+00 -1.5457394e+00 -1.5456072e+00 -1.5454308e+00
-1.5793087e+00 -1.5791760e+00 -1.5789992e+00 -1.5788666e+00 -1.5786900e+00 -1.5785134e+00 -1.5783812e+00 -1.5782049e+00 -1.5780289e+00 -1.5778531e+00 -1.5776775e+00 -1.5775460e+00 -1.5773708e+00 -1.5771523e+00 -1.5769778e+00 -1.5768037e+00 -1.5766299e+00 -1.5764131e+00 -1.5762400e+00 -1.5760243e+00 -1.5758091e+00 -1.5756375e+00 -1.5754234e+00 -1.5751674e+00 -1.5749547e+00 -1.5747427e+00 -1.5744891e+00 -1.5742364e+00 -1.5739846e+00 -1.5737336e+00 -1.5734834e+00 -1.5731925e+00 -1.5729026e+00 -1.5726135e+00 -1.5722841e+00 -1.5719966e+00 -1.5716686e+00 -1.5713412e+00 -1.5710140e+00 -1.5706870e+00 -1.5703598e+00 -1.5700323e+00 -1.5697044e+00 -1.5694168e+00 -1.5690874e+00 -1.5687984e+00 -1.5685085e+00 -1.5682176e+00 -1.5679674e+00 -1.5677164e+00 -1.5674646e+00 -1.5672119e+00 -1.5669583e+00 -1.5667463e+00 -1.5665336e+00 -1.5662776e+00 -1.5660635e+00 -1.5658918e+00 -1.5656767e+00 -1.5654609e+00 -1.5652879e+00 -1.5650711e+00 -1.5648973e+00 -1.5647231e+00 -1.5645487e+00 -1.5643301e+00 -1.5641550e+00 -1.5640235e+00 -1.5638479e+00 -1.5636721e+00 -1.5634960e+00 -1.5633198e+00 -1.5631875e+00 -1.5630110e+00 -1.5628344e+00 -1.5627018e+00 -1.5625250e+00 -1.5623923e+00 -1.5622154e+00 -1.5620827e+00 -1.5619057e+00 -1.5617730e+00 -1.5616403e+00 -1.5614634e+00 -1.5613307e+00 -1.5611982e+00 -1.5610215e+00 -1.4804706e+00 -1.2924477e+00 -1.1052767e+00 -9.1902756e-01 -7.3387355e-01 -5.4985976e-01 -3.6708061e-01 -1.8559898e-01 -5.6039810e-03  1.7287012e-01  3.4972873e-01  5.2487705e-01  6.9824426e-01  8.6964703e-01  1.0390499e+00  1.2063566e+00  1.3714706e+00  1.4578811e+00  1.4865370e+00  1.5150695e+00  1.5434361e+00  1.5715940e+00  1.5995346e+00  1.6271326e+00  1.6543909e+00  1.6812666e+00  1.7077533e+00  1.7337208e+00  1.7591789e+00  1.7840875e+00  1.8084380e+00  1.8321118e+00  1.8551215e+00  1.8774697e+00  1.8990254e+00  1.9198162e+00  1.9398512e+00  1.9589981e+00  1.9772950e+00  1.9947519e+00  2.0112480e+00  2.0268258e+00  2.0414892e+00  2.0551427e+00  2.0678654e+00  2.0795292e+00  2.0901959e+00  2.0998731e+00  2.1084774e+00  2.1160864e+00  2.1225935e+00  2.1280617e+00  2.1324884e+00  2.1358262e+00  2.1381254e+00  2.1393210e+00  2.1394846e+00  2.1385342e+00  2.1365622e+00  2.1334698e+00  2.1293705e+00  2.1241478e+00  2.1178865e+00  2.1106055e+00  2.1022474e+00  2.0928988e+00  2.0824788e+00  2.0710619e+00  2.0586688e+00  2.0452629e+00  2.0309300e+00  2.0156005e+00  1.9993530e+00  1.9822282e+00  1.9641807e+00  1.9452836e+00  1.9255824e+00  1.9050423e+00  1.8837379e+00  1.8617253e+00  1.8389677e+00  1.8155466e+00  1.7915336e+00  1.7668787e+00  1.7416747e+00  1.7159617e+00  1.6898152e+00  1.6631952e+00  1.6361930e+00  1.6088515e+00  1.5812537e+00  1.5533534e+00  1.5252448e+00  1.4969708e+00  1.4685738e+00  1.3825092e+00  1.2176551e+00  1.0506086e+00  8.8146645e-01  7.1032472e-01  5.3730614e-01  3.6241970e-01  1.8582332e-01  7.6117640e-03 -1.7212038e-01 -3.5325108e-01 -5.3576671e-01 -7.1951673e-01 -9.0440673e-01 -1.0903035e+00 -1.2772100e+00 -1.4649683e+00
-1.5792644e+00 -1.5790876e+00 -1.5789550e+00 -1.5787783e+00 -1.5786458e+00 -1.5784693e+00 -1.5782930e+00 -1.5781169e+00 -1.5779849e+00 -1.5778092e+00 -1.5776336e+00 -1.5774584e+00 -1.5772834e+00 -1.5771087e+00 -1.5769343e+00 -1.5767167e+00 -1.5765431e+00 -1.5763698e+00 -1.5761537e+00 -1.5759812e+00 -1.5757662e+00 -1.5755518e+00 -1.5753380e+00 -1.5751248e+00 -1.5749123e+00 -1.5746581e+00 -1.5744469e+00 -1.5741944e+00 -1.5739427e+00 -1.5736918e+00 -1.5734002e+00 -1.5731510e+00 -1.5728612e+00 -1.5725723e+00 -1.5722841e+00 -1.5719556e+00 -1.5716277e+00 -1.5713412e+00 -1.5710140e+00 -1.5706870e+00 -1.5703598e+00 -1.5700733e+00 -1.5697454e+00 -1.5694168e+00 -1.5691287e+00 -1.5688397e+00 -1.5685499e+00 -1.5683008e+00 -1.5680091e+00 -1.5677583e+00 -1.5675066e+00 -1.5672540e+00 -1.5670429e+00 -1.5667887e+00 -1.5665762e+00 -1.5663630e+00 -1.5661492e+00 -1.5659348e+00 -1.5657198e+00 -1.5655473e+00 -1.5653312e+00 -1.5651579e+00 -1.5649842e+00 -1.5647667e+00 -1.5645923e+00 -1.5644176e+00 -1.5642426e+00 -1.5640673e+00 -1.5638918e+00 -1.5637161e+00 -1.5635841e+00 -1.5634079e+00 -1.5632316e+00 -1.5630552e+00 -1.5629227e+00 -1.5627460e+00 -1.5626134e+00 -1.5624365e+00 -1.5623039e+00 -1.5621269e+00 -1.5619942e+00 -1.5618172e+00 -1.5616845e+00 -1.5615518e+00 -1.5613749e+00 -1.3961832e+00 -1.2064910e+00 -1.0173774e+00 -8.2903981e-01 -6.4151769e-01 -4.5490699e-01 -2.6927365e-01 -8.4801198e-02  9.8470175e-02  2.8044537e-01  4.6106397e-01  6.4012725e-01  8.1760521e-01  9.9340221e-01  1.1674223e+00  1.3395864e+00  1.4531402e+00  1.4831187e+00  1.5130654e+00  1.5429376e+00  1.5727253e+00  1.6023064e+00  1.6316798e+00  1.6608007e+00  1.6896593e+00  1.7181271e+00  1.7462074e+00  1.7738563e+00  1.8010624e+00  1.8277030e+00  1.8537848e+00  1.8793076e+00  1.9041335e+00  1.9282843e+00  1.9517252e+00  1.9744423e+00  1.9963399e+00  2.0174735e+00  2.0377054e+00  2.0570777e+00  2.0755993e+00  2.0931533e+00  2.1097824e+00  2.1254844e+00  2.1401786e+00  2.1539273e+00  2.1666268e+00  2.1783670e+00  2.1890253e+00  2.1986687e+00  2.2072965e+00  2.2148508e+00  2.2213835e+00  2.2268279e+00  2.2312470e+00  2.2345677e+00  2.2368618e+00  2.2380512e+00  2.2382148e+00  2.2372706e+00  2.2353037e+00  2.2322284e+00  2.2281366e+00  2.2229379e+00  2.2167330e+00  2.2094246e+00  2.2011251e+00  2.1917281e+00  2.1813165e+00  2.1699056e+00  2.1574534e+00  2.1440348e+00  2.1295886e+00  2.1142177e+00  2.0978373e+00  2.0805324e+00  2.0623436e+00  2.0432212e+00  2.0232397e+00  2.0024406e+00  1.9807943e+00  1.9584129e+00  1.9352244e+00  1.9113263e+00  1.8867537e+00  1.8615692e+00  1.8357417e+00  1.8093559e+00  1.7824901e+00  1.7550970e+00  1.7272730e+00  1.6990619e+00  1.6705463e+00  1.6416831e+00  1.6125679e+00  1.5832454e+00  1.5538032e+00  1.5241906e+00  1.4945039e+00  1.4647858e+00  1.3514928e+00  1.1796770e+00  1.0059186e+00  8.3038356e-01  6.5316793e-01  4.7436730e-01  2.9409938e-01  1.1238751e-01 -7.0620254e-02 -2.5482885e-01 -4.4011002e-01 -6.2645634e-01 -8.1371389e-01 -1.0017867e+00
-1.5791760e+00 -1.5790434e+00 -1.5788666e+00 -1.5787341e+00 -1.5785576e+00 -1.5783812e+00 -1.5782490e+00 -1.5780729e+00 -1.5778970e+00 -1.5777214e+00 -1.5775460e+00 -1.5773708e+00 -1.5771960e+00 -1.5770214e+00 -1.5768472e+00 -1.5766733e+00 -1.5764997e+00 -1.5762833e+00 -1.5761105e+00 -1.5758951e+00 -1.5756803e+00 -1.5755089e+00 -1.5752953e+00 -1.5750397e+00 -1.5748274e+00 -1.5746158e+00 -1.5743626e+00 -1.5741104e+00 -1.5739008e+00 -1.5736084e+00 -1.5733586e+00 -1.5731096e+00 -1.5728199e+00 -1.5725311e+00 -1.5722430e+00 -1.5719145e+00 -1.5716277e+00 -1.5713003e+00 -1.5710140e+00 -1.5706870e+00 -1.5704007e+00 -1.5700733e+00 -1.5697864e+00 -1.5694580e+00 -1.5691699e+00 -1.5688811e+00 -1.5685914e+00 -1.5683423e+00 -1.5680926e+00 -1.5678002e+00 -1.5675906e+00 -1.5673383e+00 -1.5670852e+00 -1.5668735e+00 -1.5666613e+00 -1.5664057e+00 -1.5661920e+00 -1.5660206e+00 -1.5658058e+00 -1.5655904e+00 -1.5654177e+00 -1.5652013e+00 -1.5650277e+00 -1.5648538e+00 -1.5646795e+00 -1.5645050e+00 -1.5643301e+00 -1.5641550e+00 -1.5639796e+00 -1.5638040e+00 -1.5636281e+00 -1.5634520e+00 -1.5633198e+00 -1.5631434e+00 -1.5629669e+00 -1.5628344e+00 -1.5626576e+00 -1.5625250e+00 -1.5623481e+00 -1.5622154e+00 -1.5620384e+00 -1.5619057e+00 -1.5060009e+00 -1.3149393e+00 -1.1241544e+00 -9.3370675e-01 -7.4379268e-01 -5.5445818e-01 -3.6575872e-01 -1.7789903e-01  9.0854788e-03  1.9509855e-01  3.8007775e-01  5.6382961e-01  7.4631862e-01  9.2744894e-01  1.1071608e+00  1.2852487e+00  1.4442757e+00  1.4753320e+00  1.5064477e+00  1.5376171e+00  1.5687143e+00  1.5997396e+00  1.6306480e+00  1.6614311e+00  1.6919558e+00  1.7222239e+00  1.7521889e+00  1.7818407e+00  1.8110467e+00  1.8398113e+00  1.8680905e+00  1.8958688e+00  1.9230300e+00  1.9495790e+00  1.9755082e+00  2.0006963e+00  2.0251599e+00  2.0488952e+00  2.0717874e+00  2.0938610e+00  2.1151096e+00  2.1354394e+00  2.1549114e+00  2.1734038e+00  2.1909645e+00  2.2075915e+00  2.2232084e+00  2.2378730e+00  2.2514943e+00  2.2641490e+00  2.2757367e+00  2.2863470e+00  2.2958746e+00  2.3044164e+00  2.3118665e+00  2.3183242e+00  2.3236862e+00  2.3280501e+00  2.3313182e+00  2.3335830e+00  2.3347544e+00  2.3349179e+00  2.3339919e+00  2.3320541e+00  2.3290314e+00  2.3249949e+00  2.3198785e+00  2.3137486e+00  2.3065445e+00  2.2983310e+00  2.2890498e+00  2.2787685e+00  2.2674278e+00  2.2551029e+00  2.2417292e+00  2.2273954e+00  2.2120269e+00  2.1957315e+00  2.1784201e+00  2.1601772e+00  2.1410386e+00  2.1209594e+00  2.1000454e+00  2.0782232e+00  2.0555830e+00  2.0321843e+00  2.0079735e+00  1.9830388e+00  1.9574482e+00  1.9311536e+00  1.9042473e+00  1.8768095e+00  1.8487863e+00  1.8202781e+00  1.7913290e+00  1.7620203e+00  1.7323132e+00  1.7023035e+00  1.6720375e+00  1.6416000e+00  1.6109514e+00  1.5801862e+00  1.5493495e+00  1.5185281e+00  1.4876739e+00  1.4568794e+00  1.2981145e+00  1.1202890e+00  9.4092754e-01  7.6006037e-01  5.7783479e-01  3.9434661e-01  2.0971939e-01  2.3970552e-02 -1.6274951e-01 -3.5034458e-01 -5.3869094e-01
-1.5791318e+00 -1.5789550e+00 -1.5788224e+00 -1.5786458e+00 -1.5785134e+00 -1.5783371e+00 -1.5781609e+00 -1.5779849e+00 -1.5778531e+00 -1.5776775e+00 -1.5775022e+00 -1.5773271e+00 -1.5771523e+00 -1.5769778e+00 -1.5768037e+00 -1.5765865e+00 -1.5764131e+00 -1.5762400e+00 -1.5760243e+00 -1.5758521e+00 -1.5756375e+00 -1.5754234e+00 -1.5752100e+00 -1.5749972e+00 -1.5747851e+00 -1.5745313e+00 -1.5743205e+00 -1.5740684e+00 -1.5738172e+00 -1.5735667e+00 -1.5733171e+00 -1.5730267e+00 -1.5727786e+00 -1.5724899e+00 -1.5722019e+00 -1.5719145e+00 -1.5716277e+00 -1.5713003e+00 -1.5710140e+00 -1.5706870e+00 -1.5704007e+00 -1.5700733e+00 -1.5697864e+00 -1.5694991e+00 -1.5692111e+00 -1.5689224e+00 -1.5686742e+00 -1.5683839e+00 -1.5681343e+00 -1.5678838e+00 -1.5676326e+00 -1.5673804e+00 -1.5671697e+00 -1.5669159e+00 -1.5667038e+00 -1.5664910e+00 -1.5662776e+00 -1.5660635e+00 -1.5658489e+00 -1.5656767e+00 -1.5654609e+00 -1.5652879e+00 -1.5651145e+00 -1.5648973e+00 -1.5647231e+00 -1.5645487e+00 -1.5643739e+00 -1.5641988e+00 -1.5640235e+00 -1.5638479e+00 -1.5637161e+00 -1.5635401e+00 -1.5633639e+00 -1.5631875e+00 -1.5630552e+00 -1.5628785e+00 -1.5627460e+00 -1.5625692e+00 -1.5624365e+00 -1.5622596e+00 -1.4266667e+00 -1.2353179e+00 -1.0440383e+00 -8.5284339e-01 -6.6193399e-01 -4.7136181e-01 -2.8118576e-01 -9.1605770e-02  9.7334902e-02  2.8553854e-01  4.7292912e-01  6.5933862e-01  8.4471604e-01  1.0290017e+00  1.2119931e+00  1.3936588e+00  1.4638230e+00  1.4959019e+00  1.5280389e+00  1.5602400e+00  1.5924609e+00  1.6246991e+00  1.6568134e+00  1.6888076e+00  1.7206343e+00  1.7522877e+00  1.7836227e+00  1.8146446e+00  1.8453056e+00  1.8755965e+00  1.9053793e+00  1.9346611e+00  1.9633977e+00  1.9915717e+00  2.0190718e+00  2.0459027e+00  2.0720509e+00  2.0974108e+00  2.1220371e+00  2.1457904e+00  2.1687089e+00  2.1907974e+00  2.2119430e+00  2.2321837e+00  2.2515121e+00  2.2698583e+00  2.2872691e+00  2.3036625e+00  2.3191031e+00  2.3335024e+00  2.3469361e+00  2.3593146e+00  2.3707180e+00  2.3810608e+00  2.3904211e+00  2.3987218e+00  2.4060336e+00  2.4122918e+00  2.4175544e+00  2.4218106e+00  2.4249872e+00  2.4271963e+00  2.4283366e+00  2.4285001e+00  2.4276052e+00  2.4257231e+00  2.4227919e+00  2.4188631e+00  2.4139281e+00  2.4079157e+00  2.4009320e+00  2.3928775e+00  2.3838458e+00  2.3737498e+00  2.3626758e+00  2.3505447e+00  2.3374412e+00  2.3232900e+00  2.3081807e+00  2.2920361e+00  2.2749577e+00  2.2568613e+00  2.2378664e+00  2.2178763e+00  2.1969818e+00  2.1752286e+00  2.1525623e+00  2.1290614e+00  2.1047724e+00  2.0796661e+00  2.0538565e+00  2.0272802e+00  2.0000352e+00  1.9722020e+00  1.9437215e+00  1.9146963e+00  1.8851704e+00  1.8552229e+00  1.8248200e+00  1.7940565e+00  1.7629805e+00  1.7316729e+00  1.7001061e+00  1.6683721e+00  1.6365185e+00  1.6046284e+00  1.5726690e+00  1.5407299e+00  1.5088551e+00  1.4771264e+00  1.4072251e+00  1.2258226e+00  1.0430948e+00  8.5916084e-01  6.7404751e-01  4.8790232e-01  3.0086446e-01  1.1292556e-01 -7.5750211e-02
-1.5537688e+00 -1.5789108e+00 -1.5787341e+00 -1.5786017e+00 -1.5784252e+00 -1.5782490e+00 -1.5781169e+00 -1.5779410e+00 -1.5777652e+00 -1.5775898e+00 -1.5774146e+00 -1.5772397e+00 -1.5770650e+00 -1.5768907e+00 -1.5767167e+00 -1.5765431e+00 -1.5763698e+00 -1.5761537e+00 -1.5759812e+00 -1.5757662e+00 -1.5755518e+00 -1.5753807e+00 -1.5751674e+00 -1.5749547e+00 -1.5747004e+00 -1.5744891e+00 -1.5742364e+00 -1.5740265e+00 -1.5737754e+00 -1.5735251e+00 -1.5732755e+00 -1.5729853e+00 -1.5727373e+00 -1.5724487e+00 -1.5721608e+00 -1.5718735e+00 -1.5715867e+00 -1.5713003e+00 -1.5710140e+00 -1.5706870e+00 -1.5704007e+00 -1.5701142e+00 -1.5698274e+00 -1.5695401e+00 -1.5692523e+00 -1.5689637e+00 -1.5687156e+00 -1.5684254e+00 -1.5681759e+00 -1.5679256e+00 -1.5676745e+00 -1.5674646e+00 -1.5672119e+00 -1.5670006e+00 -1.5667463e+00 -1.5665336e+00 -1.5663203e+00 -1.5661492e+00 -1.5659348e+00 -1.5657198e+00 -1.5655473e+00 -1.5653312e+00 -1.5651579e+00 -1.5649842e+00 -1.5648103e+00 -1.5646359e+00 -1.5644613e+00 -1.5642864e+00 -1.5641112e+00 -1.5639357e+00 -1.5637600e+00 -1.5635841e+00 -1.5634520e+00 -1.5632757e+00 -1.5630993e+00 -1.5629669e+00 -1.5627902e+00 -1.5373831e+00 -1.3467845e+00 -1.1558792e+00 -9.6468136e-01 -7.7339971e-01 -5.8205208e-01 -3.9083678e-01 -1.9976723e-01 -9.0461608e-03  1.8127727e-01  3.7114614e-01  5.6035589e-01  7.4886633e-01  9.3657960e-01  1.1234215e+00  1.3092180e+00  1.4492709e+00  1.4820238e+00  1.5149239e+00  1.5479780e+00  1.5811430e+00  1.6144155e+00  1.6476579e+00  1.6808717e+00  1.7140087e+00  1.7470593e+00  1.7798837e+00  1.8124814e+00  1.8448023e+00  1.8768314e+00  1.9084356e+00  1.9396138e+00  1.9703586e+00  2.0005263e+00  2.0301273e+00  2.0591183e+00  2.0874811e+00  2.1151086e+00  2.1420473e+00  2.1681584e+00  2.1934718e+00  2.2179899e+00  2.2415959e+00  2.2643229e+00  2.2861644e+00  2.3070422e+00  2.3270063e+00  2.3459672e+00  2.3639938e+00  2.3809908e+00  2.3970392e+00  2.4120440e+00  2.4260908e+00  2.4390906e+00  2.4511267e+00  2.4621214e+00  2.4721483e+00  2.4811461e+00  2.4891725e+00  2.4962187e+00  2.5022245e+00  2.5072881e+00  2.5113312e+00  2.5144236e+00  2.5165485e+00  2.5176437e+00  2.5178073e+00  2.5169573e+00  2.5151595e+00  2.5123944e+00  2.5085969e+00  2.5038608e+00  2.4981008e+00  2.4913826e+00  2.4836847e+00  2.4749334e+00  2.4652355e+00  2.4544879e+00  2.4427817e+00  2.4300297e+00  2.4163136e+00  2.4015574e+00  2.3858409e+00  2.3690932e+00  2.3513997e+00  2.3326890e+00  2.3130591e+00  2.2924325e+00  2.2709266e+00  2.2484518e+00  2.2250985e+00  2.2009179e+00  2.1758581e+00  2.1500012e+00  2.1234020e+00  2.0960297e+00  2.0680079e+00  2.0392732e+00  2.0099289e+00  1.9800183e+00  1.9496171e+00  1.9186971e+00  1.8873515e+00  1.8556678e+00  1.8236066e+00  1.7912689e+00  1.7587049e+00  1.7260021e+00  1.6931264e+00  1.6601743e+00  1.6271939e+00  1.5942712e+00  1.5613690e+00  1.5285779e+00  1.4959411e+00  1.4635398e+00  1.3237508e+00  1.1382185e+00  9.5172912e-01  7.6428047e-01  5.7603483e-01  3.8709003e-01
-1.0912667e+00 -1.2808070e+00 -1.4697317e+00 -1.5785134e+00 -1.5783812e+00 -1.5782049e+00 -1.5780289e+00 -1.5778970e+00 -1.5777214e+00 -1.5775460e+00 -1.5773708e+00 -1.5771960e+00 -1.5770214e+00 -1.5768472e+00 -1.5766733e+00 -1.5764564e+00 -1.5762833e+00 -1.5761105e+00 -1.5758951e+00 -1.5757232e+00 -1.5755089e+00 -1.5752953e+00 -1.5750822e+00 -1.5748698e+00 -1.5746581e+00 -1.5744469e+00 -1.5741944e+00 -1.5739846e+00 -1.5737336e+00 -1.5734834e+00 -1.5732340e+00 -1.5729439e+00 -1.5726960e+00 -1.5724075e+00 -1.5721608e+00 -1.5718735e+00 -1.5715867e+00 -1.5713003e+00 -1.5710140e+00 -1.5706870e+00 -1.5704007e+00 -1.5701142e+00 -1.5698274e+00 -1.5695401e+00 -1.5692934e+00 -1.5690049e+00 -1.5687570e+00 -1.5684670e+00 -1.5682176e+00 -1.5679674e+00 -1.5677164e+00 -1.5675066e+00 -1.5672540e+00 -1.5670429e+00 -1.5668311e+00 -1.5666187e+00 -1.5664057e+00 -1.5661920e+00 -1.5659777e+00 -1.5658058e+00 -1.5655904e+00 -1.5654177e+00 -1.5652446e+00 -1.5650277e+00 -1.5648538e+00 -1.5646795e+00 -1.5645050e+00 -1.5643301e+00 -1.5641550e+00 -1.5639796e+00 -1.5638040e+00 -1.5636721e+00 -1.5634960e+00 -1.5633198e+00 -1.5631875e+00 -1.4540528e+00 -1.2648631e+00 -1.0749694e+00 -8.8456014e-01 -6.9378292e-01 -5.0272069e-01 -3.1143294e-01 -1.2012557e-01  7.1183745e-02  2.6229814e-01  4.5316121e-01  6.4370291e-01  8.3374148e-01  1.0232673e+00  1.2120704e+00  1.4001137e+00  1.4655156e+00  1.4989771e+00  1.5326347e+00  1.5664922e+00  1.6005492e+00  1.6346666e+00  1.6688470e+00  1.7030419e+00  1.7372422e+00  1.7713073e+00  1.8052345e+00  1.8389721e+00  1.8725036e+00  1.9056936e+00  1.9385370e+00  1.9710230e+00  2.0030063e+00  2.0344911e+00  2.0654297e+00  2.0958023e+00  2.1254937e+00  2.1545055e+00  2.1828204e+00  2.2103348e+00  2.2370939e+00  2.2629691e+00  2.2879912e+00  2.3121579e+00  2.3353733e+00  2.3576988e+00  2.3790261e+00  2.3994382e+00  2.4188205e+00  2.4372708e+00  2.4546743e+00  2.4711362e+00  2.4865476e+00  2.5010134e+00  2.5144367e+00  2.5269144e+00  2.5383670e+00  2.5488757e+00  2.5584235e+00  2.5669498e+00  2.5745686e+00  2.5811960e+00  2.5869143e+00  2.5917048e+00  2.5955147e+00  2.5984398e+00  2.6004506e+00  2.6014862e+00  2.6016497e+00  2.6008594e+00  2.5991758e+00  2.5965779e+00  2.5930135e+00  2.5885505e+00  2.5831601e+00  2.5767788e+00  2.5694884e+00  2.5612086e+00  2.5519898e+00  2.5418106e+00  2.5306055e+00  2.5184582e+00  2.5052831e+00  2.4911487e+00  2.4759863e+00  2.4598569e+00  2.4427033e+00  2.4245867e+00  2.4054552e+00  2.3853781e+00  2.3643025e+00  2.3423134e+00  2.3193508e+00  2.2955218e+00  2.2707535e+00  2.2451326e+00  2.2187133e+00  2.1914542e+00  2.1634804e+00  2.1347251e+00  2.1052905e+00  2.0752611e+00  2.0445804e+00  2.0133539e+00  1.9816294e+00  1.9494891e+00  1.9169054e+00  1.8839755e+00  1.8507915e+00  1.8173150e+00  1.7836492e+00  1.7498459e+00  1.7159951e+00  1.6820627e+00  1.6481452e+00  1.6142909e+00  1.5805852e+00  1.5469916e+00  1.5135980e+00  1.4804888e+00  1.4153515e+00  1.2275728e+00  1.0390346e+00  8.4986208e-01
-6.2868447e-01 -8.1796474e-01 -1.0065589e+00 -1.1943610e+00 -1.3811722e+00 -1.5669464e+00 -1.5779849e+00 -1.5778092e+00 -1.5776336e+00 -1.5774584e+00 -1.5772834e+00 -1.5771087e+00 -1.5769343e+00 -1.5767602e+00 -1.5765865e+00 -1.5764131e+00 -1.5762400e+00 -1.5760243e+00 -1.5758521e+00 -1.5756375e+00 -1.5754234e+00 -1.5752526e+00 -1.5750397e+00 -1.5748274e+00 -1.5746158e+00 -1.5743626e+00 -1.5741524e+00 -1.5739008e+00 -1.5736918e+00 -1.5734418e+00 -1.5731925e+00 -1.5729026e+00 -1.5726548e+00 -1.5724075e+00 -1.5721198e+00 -1.5718325e+00 -1.5715458e+00 -1.5712594e+00 -1.5709731e+00 -1.5707278e+00 -1.5704416e+00 -1.5701552e+00 -1.5698684e+00 -1.5695812e+00 -1.5692934e+00 -1.5690462e+00 -1.5687984e+00 -1.5685085e+00 -1.5682592e+00 -1.5680091e+00 -1.5678002e+00 -1.5675486e+00 -1.5673383e+00 -1.5670852e+00 -1.5668735e+00 -1.5666613e+00 -1.5664484e+00 -1.5662776e+00 -1.5660635e+00 -1.5658489e+00 -1.5656767e+00 -1.5654609e+00 -1.5652879e+00 -1.5651145e+00 -1.5649408e+00 -1.5647667e+00 -1.5645923e+00 -1.5644176e+00 -1.5642426e+00 -1.5640673e+00 -1.5638918e+00 -1.5637161e+00 -1.5523256e+00 -1.3662871e+00 -1.1791233e+00 -9.9105655e-01 -8.0210918e-01 -6.1247550e-01 -4.2230515e-01 -2.3164162e-01 -4.0681290e-02  1.5054398e-01  3.4183813e-01  5.3313382e-01  7.2436807e-01  9.1534509e-01  1.1060097e+00  1.2962919e+00  1.4471855e+00  1.4808778e+00  1.5149373e+00  1.5492382e+00  1.5837833e+00  1.6185694e+00  1.6534627e+00  1.6884617e+00  1.7235604e+00  1.7586139e+00  1.7936203e+00  1.8285266e+00  1.8633179e+00  1.8978525e+00  1.9321242e+00  1.9661213e+00  1.9996926e+00  2.0328390e+00  2.0655083e+00  2.0976813e+00  2.1292304e+00  2.1601545e+00  2.1904381e+00  2.2199611e+00  2.2487307e+00  2.2767328e+00  2.3038659e+00  2.3301770e+00  2.3555468e+00  2.3800083e+00  2.4035578e+00  2.4261177e+00  2.4477382e+00  2.4683381e+00  2.4879817e+00  2.5065899e+00  2.5242342e+00  2.5408434e+00  2.5564886e+00  2.5711544e+00  2.5847785e+00  2.5974795e+00  2.6091689e+00  2.6199450e+00  2.6297879e+00  2.6386449e+00  2.6466339e+00  2.6536797e+00  2.6598630e+00  2.6651706e+00  2.6695664e+00  2.6731292e+00  2.6758410e+00  2.6776641e+00  2.6786680e+00  2.6788315e+00  2.6781547e+00  2.6765769e+00  2.6741924e+00  2.6709570e+00  2.6668069e+00  2.6618272e+00  2.6559719e+00  2.6491725e+00  2.6415122e+00  2.6329020e+00  2.6233886e+00  2.6129426e+00  2.6015010e+00  2.5891310e+00  2.5757555e+00  2.5614218e+00  2.5461093e+00  2.5297500e+00  2.5124397e+00  2.4940824e+00  2.4747739e+00  2.4544260e+00  2.4331420e+00  2.4108350e+00  2.3876235e+00  2.3634159e+00  2.3383005e+00  2.3123294e+00  2.2854518e+00  2.2577911e+00  2.2292780e+00  2.2000121e+00  2.1700718e+00  2.1394057e+00  2.1081151e+00  2.0762875e+00  2.0438776e+00  2.0109911e+00  1.9776800e+00  1.9440306e+00  1.9100201e+00  1.8757470e+00  1.8413050e+00  1.8066609e+00  1.7719172e+00  1.7371267e+00  1.7023790e+00  1.6676436e+00  1.6330142e+00  1.5985803e+00  1.5642996e+00  1.5302632e+00  1.4965567e+00  1.4631293e+00  1.3125008e+00
-1.6595475e-01 -3.5501751e-01 -5.4328048e-01 -7.3068022e-01 -9.1711068e-01 -1.1023555e+00 -1.2863261e+00 -1.4689152e+00 -1.5775898e+00 -1.5774146e+00 -1.5772397e+00 -1.5770650e+00 -1.5768907e+00 -1.5767167e+00 -1.5765431e+00 -1.5763265e+00 -1.5761537e+00 -1.5759812e+00 -1.5757662e+00 -1.5755946e+00 -1.5753807e+00 -1.5751674e+00 -1.5749547e+00 -1.5747427e+00 -1.5745313e+00 -1.5743205e+00 -1.5741104e+00 -1.5738590e+00 -1.5736084e+00 -1.5734002e+00 -1.5731510e+00 -1.5728612e+00 -1.5726135e+00 -1.5723664e+00 -1.5720787e+00 -1.5718325e+00 -1.5715458e+00 -1.5712594e+00 -1.5709731e+00 -1.5707278e+00 -1.5704416e+00 -1.5701552e+00 -1.5698684e+00 -1.5696223e+00 -1.5693346e+00 -1.5690874e+00 -1.5688397e+00 -1.5685499e+00 -1.5683008e+00 -1.5680926e+00 -1.5678420e+00 -1.5675906e+00 -1.5673804e+00 -1.5671697e+00 -1.5669583e+00 -1.5667463e+00 -1.5665336e+00 -1.5663203e+00 -1.5661064e+00 -1.5659348e+00 -1.5657198e+00 -1.5655473e+00 -1.5653745e+00 -1.5651579e+00 -1.5649842e+00 -1.5648103e+00 -1.5646359e+00 -1.5644613e+00 -1.5642864e+00 -1.5641112e+00 -1.4550856e+00 -1.2722331e+00 -1.0879107e+00 -9.0231371e-01 -7.1561888e-01 -5.2786634e-01 -3.3925026e-01 -1.4992251e-01  4.0066221e-02  2.3051627e-01  4.2139294e-01  6.1249721e-01  8.0380200e-01  9.9510987e-01  1.1863568e+00  1.3774795e+00  1.4614490e+00  1.4955824e+00  1.5301269e+00  1.5649555e+00  1.6000712e+00  1.6354702e+00  1.6710197e+00  1.7067166e+00  1.7425515e+00  1.7783840e+00  1.8142077e+00  1.8500111e+00  1.8856445e+00  1.9211023e+00  1.9563278e+00  1.9913005e+00  2.0258808e+00  2.0600591e+00  2.0938178e+00  2.1270149e+00  2.1596481e+00  2.1917040e+00  2.2230442e+00  2.2536752e+00  2.2835871e+00  2.3126546e+00  2.3408921e+00  2.3682904e+00  2.3947496e+00  2.4203210e+00  2.4448939e+00  2.4685433e+00  2.4911526e+00  2.5128152e+00  2.5334143e+00  2.5530555e+00  2.5716274e+00  2.5892406e+00  2.6057957e+00  2.6214001e+00  2.6359721e+00  2.6496081e+00  2.6622496e+00  2.6739739e+00  2.6847777e+00  2.6946312e+00  2.7036262e+00  2.7117534e+00  2.7189846e+00  2.7254104e+00  2.7310188e+00  2.7358241e+00  2.7397840e+00  2.7430053e+00  2.7454575e+00  2.7471017e+00  2.7480199e+00  2.7481834e+00  2.7475923e+00  2.7461935e+00  2.7440685e+00  2.7411746e+00  2.7374604e+00  2.7329829e+00  2.7277026e+00  2.7216053e+00  2.7146207e+00  2.7068226e+00  2.6981572e+00  2.6885513e+00  2.6780781e+00  2.6666849e+00  2.6542921e+00  2.6409884e+00  2.6266660e+00  2.6113950e+00  2.5950904e+00  2.5778118e+00  2.5594913e+00  2.5401861e+00  2.5198396e+00  2.4985142e+00  2.4761585e+00  2.4528478e+00  2.4285294e+00  2.4032982e+00  2.3770946e+00  2.3500380e+00  2.3220571e+00  2.2932468e+00  2.2636784e+00  2.2333057e+00  2.2022241e+00  2.1705136e+00  2.1381401e+00  2.1052030e+00  2.0717916e+00  2.0378742e+00  2.0035552e+00  1.9689315e+00  1.9339680e+00  1.8987727e+00  1.8634020e+00  1.8279495e+00  1.7923892e+00  1.7568203e+00  1.7213375e+00  1.6859048e+00  1.6506197e+00  1.6155736e+00  1.5807228e+00  1.5461591e+00  1.5119681e+00
2.9683010e-01  1.0810718e-01 -7.9872519e-02 -2.6686975e-01 -4.5282031e-01 -6.3762522e-01 -8.2103762e-01 -1.0029748e+00 -1.1832822e+00 -1.3617985e+00 -1.5383554e+00 -1.5769778e+00 -1.5768037e+00 -1.5766299e+00 -1.5764564e+00 -1.5762833e+00 -1.5761105e+00 -1.5758951e+00 -1.5757232e+00 -1.5755089e+00 -1.5753380e+00 -1.5751248e+00 -1.5749123e+00 -1.5747004e+00 -1.5744891e+00 -1.5742785e+00 -1.5740265e+00 -1.5738172e+00 -1.5735667e+00 -1.5733171e+00 -1.5731096e+00 -1.5728612e+00 -1.5725723e+00 -1.5723253e+00 -1.5720787e+00 -1.5717915e+00 -1.5715458e+00 -1.5712594e+00 -1.5709731e+00 -1.5707278e+00 -1.5704416e+00 -1.5701552e+00 -1.5699094e+00 -1.5696223e+00 -1.5693757e+00 -1.5691287e+00 -1.5688397e+00 -1.5685914e+00 -1.5683839e+00 -1.5681343e+00 -1.5678838e+00 -1.5676745e+00 -1.5674225e+00 -1.5672119e+00 -1.5670006e+00 -1.5667887e+00 -1.5665762e+00 -1.5663630e+00 -1.5661920e+00 -1.5659777e+00 -1.5658058e+00 -1.5655904e+00 -1.5654177e+00 -1.5652446e+00 -1.5650711e+00 -1.5648973e+00 -1.5647231e+00 -1.5257517e+00 -1.3488453e+00 -1.1699789e+00 -9.8932076e-01 -8.0703245e-01 -6.2326840e-01 -4.3819947e-01 -2.5189655e-01 -6.4546604e-02  1.2369784e-01  3.1277399e-01  5.0248103e-01  6.9278153e-01  8.8347070e-01  1.0745202e+00  1.2657299e+00  1.4413960e+00  1.4754093e+00  1.5098698e+00  1.5447842e+00  1.5800237e+00  1.6155916e+00  1.6514853e+00  1.6875703e+00  1.7238431e+00  1.7602933e+00  1.7967810e+00  1.8332973e+00  1.8698270e+00  1.9062240e+00  1.9424776e+00  1.9785710e+00  2.0143519e+00  2.0498117e+00  2.0849352e+00  2.1195658e+00  2.1537006e+00  2.1872839e+00  2.2202930e+00  2.2525995e+00  2.2842421e+00  2.3150718e+00  2.3451034e+00  2.3743345e+00  2.4026347e+00  2.4300269e+00  2.4565083e+00  2.4819806e+00  2.5065020e+00  2.5299695e+00  2.5524602e+00  2.5738720e+00  2.5942951e+00  2.6136339e+00  2.6319851e+00  2.6492652e+00  2.6655702e+00  2.6808341e+00  2.6951444e+00  2.7084936e+00  2.7208470e+00  2.7323162e+00  2.7428885e+00  2.7525327e+00  2.7613668e+00  2.7693764e+00  2.7765361e+00  2.7829544e+00  2.7886178e+00  2.7935470e+00  2.7977096e+00  2.8012134e+00  2.8040333e+00  2.8061812e+00  2.8076176e+00  2.8084349e+00  2.8085985e+00  2.8081082e+00  2.8069171e+00  2.8050965e+00  2.8026040e+00  2.7994278e+00  2.7955111e+00  2.7909100e+00  2.7855750e+00  2.7794856e+00  2.7725728e+00  2.7648928e+00  2.7563889e+00  2.7469927e+00  2.7367515e+00  2.7256141e+00  2.7135099e+00  2.7004936e+00  2.6865168e+00  2.6715035e+00  2.6555334e+00  2.6385049e+00  2.6204898e+00  2.6014037e+00  2.5813181e+00  2.5601600e+00  2.5380082e+00  2.5147954e+00  2.4906144e+00  2.4653979e+00  2.4392582e+00  2.4121230e+00  2.3840800e+00  2.3551927e+00  2.3254194e+00  2.2948485e+00  2.2635516e+00  2.2315048e+00  2.1988426e+00  2.1655200e+00  2.1316463e+00  2.0972771e+00  2.0625027e+00  2.0273051e+00  1.9917867e+00  1.9560439e+00  1.9200535e+00  1.8839200e+00  1.8477421e+00  1.8114899e+00  1.7752665e+00  1.7391691e+00  1.7031610e+00  1.6673408e+00  1.6318006e+00  1.5964978e+00
7.5977409e-01  5.7131238e-01  3.8374565e-01  1.9714216e-01  1.1617340e-02 -1.7262343e-01 -3.5548503e-01 -5.3685296e-01 -7.1647883e-01 -8.9426098e-01 -1.0700313e+00 -1.2436147e+00 -1.4148286e+00 -1.5765865e+00 -1.5764131e+00 -1.5761969e+00 -1.5760243e+00 -1.5758521e+00 -1.5756375e+00 -1.5754662e+00 -1.5752526e+00 -1.5750397e+00 -1.5748698e+00 -1.5746581e+00 -1.5744469e+00 -1.5741944e+00 -1.5739846e+00 -1.5737754e+00 -1.5735251e+00 -1.5732755e+00 -1.5730681e+00 -1.5728199e+00 -1.5725723e+00 -1.5722841e+00 -1.5720376e+00 -1.5717915e+00 -1.5715049e+00 -1.5712594e+00 -1.5709731e+00 -1.5707278e+00 -1.5704416e+00 -1.5701961e+00 -1.5699094e+00 -1.5696633e+00 -1.5694168e+00 -1.5691287e+00 -1.5688811e+00 -1.5686328e+00 -1.5684254e+00 -1.5681759e+00 -1.5679256e+00 -1.5677164e+00 -1.5675066e+00 -1.5672540e+00 -1.5670429e+00 -1.5668311e+00 -1.5666613e+00 -1.5664484e+00 -1.5662348e+00 -1.5660635e+00 -1.5658489e+00 -1.5656767e+00 -1.5655041e+00 -1.5652879e+00 -1.5651145e+00 -1.4030092e+00 -1.2314471e+00 -1.0575150e+00 -8.8139523e-01 -7.0326309e-01 -5.2328667e-01 -3.4165550e-01 -1.5844249e-01  2.6150146e-02  2.1193913e-01  3.9889516e-01  5.8681478e-01  7.7554134e-01  9.6503184e-01  1.1550760e+00  1.3456460e+00  1.4550939e+00  1.4893233e+00  1.5239956e+00  1.5591623e+00  1.5946946e+00  1.6305952e+00  1.6668632e+00  1.7033620e+00  1.7400878e+00  1.7770306e+00  1.8140487e+00  1.8511320e+00  1.8882638e+00  1.9252976e+00  1.9622197e+00  1.9990093e+00  2.0355164e+00  2.0717267e+00  2.1076192e+00  2.1430416e+00  2.1779834e+00  2.2124258e+00  2.2462187e+00  2.2793580e+00  2.3118294e+00  2.3434912e+00  2.3743481e+00  2.4043897e+00  2.4334925e+00  2.4617116e+00  2.4889126e+00  2.5151277e+00  2.5403626e+00  2.5645204e+00  2.5876683e+00  2.6097108e+00  2.6307299e+00  2.6506366e+00  2.6695216e+00  2.6873078e+00  2.7040881e+00  2.7198023e+00  2.7345384e+00  2.7482921e+00  2.7610364e+00  2.7728833e+00  2.7838263e+00  2.7938444e+00  2.8030563e+00  2.8114562e+00  2.8190312e+00  2.8258902e+00  2.8320305e+00  2.8374811e+00  2.8422266e+00  2.8463699e+00  2.8499000e+00  2.8528374e+00  2.8551996e+00  2.8569585e+00  2.8582031e+00  2.8589053e+00  2.8590688e+00  2.8586937e+00  2.8577762e+00  2.8562628e+00  2.8542280e+00  2.8516183e+00  2.8484160e+00  2.8446010e+00  2.8401017e+00  2.8349800e+00  2.8291690e+00  2.8226397e+00  2.8153125e+00  2.8072432e+00  2.7983626e+00  2.7885933e+00  2.7779827e+00  2.7664689e+00  2.7539748e+00  2.7405553e+00  2.7261543e+00  2.7106918e+00  2.6942479e+00  2.6767145e+00  2.6581672e+00  2.6385144e+00  2.6178344e+00  2.5960468e+00  2.5732394e+00  2.5493375e+00  2.5244446e+00  2.4984865e+00  2.4715429e+00  2.4436679e+00  2.4148236e+00  2.3851272e+00  2.3545298e+00  2.3231279e+00  2.2910036e+00  2.2581250e+00  2.2245934e+00  2.1904998e+00  2.1558200e+00  2.1206599e+00  2.0851177e+00  2.0491704e+00  2.0129267e+00  1.9764886e+00  1.9398304e+00  1.9030607e+00  1.8662816e+00  1.8294628e+00  1.7927095e+00  1.7561200e+00  1.7196593e+00  1.6834258e+00
