2.8543980e+00  2.8663425e+00  2.8765759e+00  2.8851606e+00  2.8921624e+00  2.8974961e+00  2.9012994e+00  2.9035025e+00  2.9042590e+00  2.9035132e+00  2.9014337e+00  2.8980312e+00  2.8933249e+00  2.8874989e+00  2.8805801e+00  2.8726046e+00  2.8637660e+00  2.8541028e+00  2.8436597e+00  2.8326397e+00  2.8210860e+00  2.8090974e+00  2.7967733e+00  2.7842125e+00  2.7715132e+00  2.7587720e+00  2.7460838e+00  2.7335412e+00  2.7212337e+00  2.7092481e+00  2.6976673e+00  2.6865702e+00  2.6760317e+00  2.6661220e+00  2.6569666e+00  2.6485195e+00  2.6408836e+00  2.6341633e+00  2.6283103e+00  2.6234008e+00  2.6195250e+00  2.6166122e+00  2.6147203e+00  2.6139295e+00  2.6141334e+00  2.6154337e+00  2.6177334e+00  2.6210542e+00  2.6254403e+00  2.6307584e+00  2.6370203e+00  2.6442525e+00  2.6522983e+00  2.6611560e+00  2.6708255e+00  2.6811472e+00  2.6920984e+00  2.7036089e+00  2.7156040e+00  2.7280048e+00  2.7407282e+00  2.7536877e+00  2.7667937e+00  2.7799536e+00  2.7930726e+00  2.8060541e+00  2.8187999e+00  2.8312112e+00  2.8431887e+00  2.8546333e+00  2.8653957e+00  2.8754853e+00  2.8847515e+00  2.8930482e+00  2.9003962e+00  2.9066523e+00  2.9116819e+00  2.9155161e+00  2.9180283e+00  2.9190991e+00  2.9187768e+00  2.9168998e+00  2.9135320e+00  2.9085253e+00  2.9019603e+00  2.8937036e+00  2.8837986e+00  2.8722923e+00  2.8590805e+00  2.8442832e+00  2.8278106e+00  2.8098017e+00  2.7901799e+00  2.7690458e+00  2.7465035e+00  2.7225004e+00  2.6972101e+00  2.6705904e+00  2.6427711e+00  2.6138855e+00  2.5839056e+00  2.5530268e+00  2.5212280e+00  2.4887077e+00  2.4554502e+00  2.4215992e+00  2.3873068e+00  2.3525500e+00  2.3175369e+00  2.2822959e+00  2.2468679e+00  2.2114443e+00  2.1760016e+00  2.1407348e+00  2.1056629e+00  2.0708102e+00  2.0363638e+00  2.0023337e+00  1.9687876e+00  1.9357901e+00  1.9034025e+00  1.8716831e+00  1.8406870e+00  1.8104663e+00  1.7810697e+00  1.7525432e+00  1.7249298e+00  1.6982696e+00  1.6726564e+00  1.6480298e+00  1.6244643e+00  1.6020616e+00  1.5807335e+00  1.5606357e+00  1.5417298e+00  1.5240478e+00  1.5075709e+00  1.4924301e+00  1.4785950e+00  1.4660900e+00  1.4549376e+00  1.4452150e+00  1.4368369e+00  1.4173049e+00  1.3844686e+00  1.3598481e+00  1.3434480e+00  1.3353337e+00  1.3356395e+00  1.3442634e+00  1.3611732e+00  1.3864060e+00  1.4197529e+00  1.4397963e+00  1.4486863e+00  1.4590243e+00  1.4706905e+00  1.4837105e+00  1.4980616e+00  1.5137196e+00  1.5306112e+00  1.5488127e+00  1.5682395e+00  1.5888597e+00  1.6106068e+00  1.6335346e+00  1.6575213e+00  1.6825701e+00  1.7087125e+00  1.7357972e+00  1.7638361e+00  1.7927890e+00  1.8226131e+00  1.8532623e+00  1.8846878e+00  1.9168376e+00  1.9496565e+00  1.9830863e+00  2.0170654e+00  2.0515295e+00  2.0864106e+00  2.1215899e+00  2.1570978e+00  2.1928014e+00  2.2285720e+00  2.2644335e+00  2.3001902e+00  2.3358700e+00  2.3713225e+00  2.4064090e+00  2.4411414e+00  2.4753227e+00  2.5089105e+00  2.5418716e+00  2.5740011e+00  2.6053209e+00  2.6356316e+00  2.6649584e+00  2.6931085e+00
2.8179126e+00  2.8336921e+00  2.8478194e+00  2.8603945e+00  2.8713112e+00  2.8806878e+00  2.8884333e+00  2.8946828e+00  2.8993611e+00  2.9026182e+00  2.9043942e+00  2.9048526e+00  2.9039471e+00  2.9018537e+00  2.8985904e+00  2.8941823e+00  2.8888193e+00  2.8825322e+00  2.8753569e+00  2.8674946e+00  2.8589825e+00  2.8499156e+00  2.8403898e+00  2.8305013e+00  2.8202942e+00  2.8099692e+00  2.7995657e+00  2.7891755e+00  2.7788880e+00  2.7687900e+00  2.7590193e+00  2.7495515e+00  2.7405136e+00  2.7319769e+00  2.7240081e+00  2.7166688e+00  2.7100748e+00  2.7041702e+00  2.6990482e+00  2.6948003e+00  2.6913691e+00  2.6888193e+00  2.6871706e+00  2.6865038e+00  2.6867076e+00  2.6878840e+00  2.6899405e+00  2.6928983e+00  2.6967377e+00  2.7014962e+00  2.7070272e+00  2.7133412e+00  2.7204477e+00  2.7281975e+00  2.7365775e+00  2.7455260e+00  2.7549764e+00  2.7648575e+00  2.7751460e+00  2.7856591e+00  2.7963625e+00  2.8071695e+00  2.8179908e+00  2.8287346e+00  2.8392564e+00  2.8495654e+00  2.8595126e+00  2.8690020e+00  2.8779375e+00  2.8862243e+00  2.8937186e+00  2.9004319e+00  2.9062222e+00  2.9109513e+00  2.9146435e+00  2.9171669e+00  2.9183955e+00  2.9183686e+00  2.9169168e+00  2.9140928e+00  2.9097399e+00  2.9039249e+00  2.8965058e+00  2.8875651e+00  2.8769757e+00  2.8648377e+00  2.8510387e+00  2.8356973e+00  2.8187148e+00  2.8001727e+00  2.7801540e+00  2.7585878e+00  2.7356301e+00  2.7112204e+00  2.6854746e+00  2.6585104e+00  2.6302874e+00  2.6009902e+00  2.5705860e+00  2.5392121e+00  2.5070081e+00  2.4739507e+00  2.4402383e+00  2.4058512e+00  2.3709881e+00  2.3356320e+00  2.2999786e+00  2.2640118e+00  2.2279235e+00  2.1916946e+00  2.1555144e+00  2.1193559e+00  2.0834091e+00  2.0476902e+00  2.0122223e+00  1.9771832e+00  1.9425818e+00  1.9084817e+00  1.8748922e+00  1.8419785e+00  1.8097376e+00  1.7782207e+00  1.7474759e+00  1.7175482e+00  1.6884799e+00  1.6603644e+00  1.6331397e+00  1.6068874e+00  1.5816395e+00  1.5574903e+00  1.5343583e+00  1.5123813e+00  1.4914792e+00  1.4717936e+00  1.4532883e+00  1.4359917e+00  1.3692984e+00  1.2831726e+00  1.2039000e+00  1.1317321e+00  1.0669065e+00  1.0096445e+00  9.6014739e-01  9.1869000e-01  8.8534160e-01  8.6023080e-01  8.4360403e-01  8.3535571e-01  8.3566144e-01  8.4441938e-01  8.6165796e-01  8.8727898e-01  9.2113806e-01  9.6320905e-01  1.0132182e+00  1.0709933e+00  1.1363326e+00  1.2090155e+00  1.2888041e+00  1.3754471e+00  1.4426588e+00  1.4604753e+00  1.4795018e+00  1.4997101e+00  1.5210315e+00  1.5435338e+00  1.5670873e+00  1.5917647e+00  1.6174363e+00  1.6441133e+00  1.6717637e+00  1.7004128e+00  1.7299091e+00  1.7602658e+00  1.7914405e+00  1.8233883e+00  1.8560609e+00  1.8894072e+00  1.9233219e+00  1.9578560e+00  1.9928924e+00  2.0283672e+00  2.0641623e+00  2.1003182e+00  2.1367025e+00  2.1731895e+00  2.2098083e+00  2.2463664e+00  2.2828942e+00  2.3191908e+00  2.3552842e+00  2.3909707e+00  2.4262744e+00  2.4609921e+00  2.4951455e+00  2.5285337e+00  2.5611789e+00  2.5928835e+00  2.6236186e+00
2.7720604e+00  2.7913638e+00  2.8091986e+00  2.8254373e+00  2.8401813e+00  2.8533162e+00  2.8649070e+00  2.8750171e+00  2.8835648e+00  2.8906837e+00  2.8963601e+00  2.9005816e+00  2.9035087e+00  2.9050901e+00  2.9054968e+00  2.9047432e+00  2.9028504e+00  2.9000020e+00  2.8962260e+00  2.8915559e+00  2.8861844e+00  2.8801473e+00  2.8735355e+00  2.8664409e+00  2.8589056e+00  2.8511248e+00  2.8431368e+00  2.8350314e+00  2.8268966e+00  2.8188180e+00  2.8108784e+00  2.8031572e+00  2.7957300e+00  2.7887229e+00  2.7820995e+00  2.7759719e+00  2.7703967e+00  2.7654254e+00  2.7611562e+00  2.7575329e+00  2.7546323e+00  2.7524811e+00  2.7511541e+00  2.7505677e+00  2.7507715e+00  2.7517656e+00  2.7536023e+00  2.7561615e+00  2.7594703e+00  2.7635021e+00  2.7682824e+00  2.7736632e+00  2.7796482e+00  2.7861862e+00  2.7932206e+00  2.8007424e+00  2.8085821e+00  2.8167166e+00  2.8250703e+00  2.8335637e+00  2.8421143e+00  2.8506363e+00  2.8590419e+00  2.8672412e+00  2.8750911e+00  2.8826058e+00  2.8896388e+00  2.8960982e+00  2.9018928e+00  2.9068810e+00  2.9110820e+00  2.9143563e+00  2.9165693e+00  2.9177506e+00  2.9177727e+00  2.9165134e+00  2.9140167e+00  2.9101186e+00  2.9048742e+00  2.8981881e+00  2.8899657e+00  2.8802899e+00  2.8690254e+00  2.8562172e+00  2.8419094e+00  2.8259984e+00  2.8086009e+00  2.7896259e+00  2.7692097e+00  2.7472720e+00  2.7239117e+00  2.6992275e+00  2.6731641e+00  2.6458912e+00  2.6173610e+00  2.5877005e+00  2.5570371e+00  2.5253386e+00  2.4927961e+00  2.4593822e+00  2.4252375e+00  2.3905039e+00  2.3551583e+00  2.3193987e+00  2.2832032e+00  2.2467671e+00  2.2100685e+00  2.1732987e+00  2.1364330e+00  2.0996588e+00  2.0629450e+00  2.0264773e+00  1.9902683e+00  1.9543397e+00  1.9188612e+00  1.8838397e+00  1.8492838e+00  1.8153595e+00  1.7820619e+00  1.7494416e+00  1.7175460e+00  1.6864196e+00  1.6561041e+00  1.6266383e+00  1.5980584e+00  1.5703979e+00  1.5436880e+00  1.5180216e+00  1.4933121e+00  1.4696920e+00  1.4470931e+00  1.4079890e+00  1.2902440e+00  1.1780902e+00  1.0717218e+00  9.7142464e-01  8.7748217e-01  7.9017281e-01  7.0976709e-01  6.3652469e-01  5.7069147e-01  5.1249650e-01  4.6229338e-01  4.2009583e-01  3.8621461e-01  3.6070684e-01  3.4376002e-01  3.3537767e-01  3.3568340e-01  3.4457537e-01  3.6213401e-01  3.8815199e-01  4.2264609e-01  4.6535504e-01  5.1617279e-01  5.7488088e-01  6.4122816e-01  7.1498567e-01  7.9590763e-01  8.8373445e-01  9.7819566e-01  1.0790129e+00  1.1859028e+00  1.2985797e+00  1.4167441e+00  1.4563739e+00  1.4793945e+00  1.5035431e+00  1.5286766e+00  1.5548743e+00  1.5820105e+00  1.6100982e+00  1.6391064e+00  1.6690014e+00  1.6997470e+00  1.7313045e+00  1.7636321e+00  1.7966853e+00  1.8304166e+00  1.8647754e+00  1.8996577e+00  1.9351151e+00  1.9710302e+00  2.0072867e+00  2.0439333e+00  2.0808393e+00  2.1178822e+00  2.1550956e+00  2.1922909e+00  2.2295007e+00  2.2665295e+00  2.3034060e+00  2.3399321e+00  2.3761326e+00  2.4118089e+00  2.4469837e+00  2.4814592e+00  2.5152040e+00  2.5481876e+00
2.7174135e+00  2.7400438e+00  2.7611872e+00  2.7808755e+00  2.7991376e+00  2.8158562e+00  2.8311322e+00  2.8448609e+00  2.8571606e+00  2.8679408e+00  2.8773353e+00  2.8852688e+00  2.8918881e+00  2.8971333e+00  2.9011623e+00  2.9039819e+00  2.9056013e+00  2.9061965e+00  2.9057869e+00  2.9043965e+00  2.9022120e+00  2.8992623e+00  2.8956320e+00  2.8913555e+00  2.8866263e+00  2.8814781e+00  2.8759980e+00  2.8702726e+00  2.8643870e+00  2.8584244e+00  2.8524658e+00  2.8465889e+00  2.8408683e+00  2.8353745e+00  2.8301736e+00  2.8253274e+00  2.8209439e+00  2.8169763e+00  2.8135171e+00  2.8106057e+00  2.8082752e+00  2.8065524e+00  2.8055149e+00  2.8050700e+00  2.8052738e+00  2.8061264e+00  2.8076737e+00  2.8098044e+00  2.8125431e+00  2.8158630e+00  2.8197311e+00  2.8241079e+00  2.8290037e+00  2.8342604e+00  2.8398722e+00  2.8457777e+00  2.8519107e+00  2.8582006e+00  2.8645731e+00  2.8709503e+00  2.8772515e+00  2.8833933e+00  2.8892907e+00  2.8948573e+00  2.9000056e+00  2.9045972e+00  2.9086484e+00  2.9120201e+00  2.9146276e+00  2.9163358e+00  2.9171701e+00  2.9170007e+00  2.9157012e+00  2.9133092e+00  2.9097086e+00  2.9047853e+00  2.8985962e+00  2.8909859e+00  2.8820232e+00  2.8715674e+00  2.8597010e+00  2.8462979e+00  2.8314566e+00  2.8150645e+00  2.7972385e+00  2.7778776e+00  2.7570621e+00  2.7348695e+00  2.7112285e+00  2.6862896e+00  2.6599890e+00  2.6324392e+00  2.6037512e+00  2.5738817e+00  2.5430104e+00  2.5110978e+00  2.4782783e+00  2.4446846e+00  2.4102888e+00  2.3752843e+00  2.3396454e+00  2.3035119e+00  2.2670244e+00  2.2301570e+00  2.1931036e+00  2.1558371e+00  2.1185474e+00  2.0812045e+00  2.0439936e+00  2.0068793e+00  1.9700435e+00  1.9334408e+00  1.8972535e+00  1.8614817e+00  1.8261299e+00  1.7913702e+00  1.7571938e+00  1.7236503e+00  1.6907867e+00  1.6586468e+00  1.6272189e+00  1.5966477e+00  1.5669136e+00  1.5381053e+00  1.5101463e+00  1.4831178e+00  1.4570458e+00  1.4320072e+00  1.3104637e+00  1.1764035e+00  1.0471552e+00  9.2285514e-01  8.0381630e-01  6.9033892e-01  5.8266337e-01  4.8108283e-01  3.8588849e-01  2.9736675e-01  2.1579629e-01  1.4144503e-01  7.4619143e-02  1.5555019e-02 -3.5562992e-02 -7.8403153e-02 -1.1292561e-01 -1.3881711e-01 -1.5608400e-01 -1.6460036e-01 -1.6429463e-01 -1.5526865e-01 -1.3738995e-01 -1.1088613e-01 -7.5852885e-02 -3.2398967e-02  1.9231314e-02  7.8808553e-02  1.4625144e-01  2.2111802e-01  3.0320496e-01  3.9224441e-01  4.8795776e-01  5.9005868e-01  6.9825604e-01  8.1225670e-01  9.3171525e-01  1.0565413e+00  1.1863173e+00  1.3208006e+00  1.4427683e+00  1.4683386e+00  1.4948371e+00  1.5222931e+00  1.5506806e+00  1.5800258e+00  1.6101906e+00  1.6411933e+00  1.6729455e+00  1.7055184e+00  1.7388160e+00  1.7727942e+00  1.8074061e+00  1.8426020e+00  1.8782814e+00  1.9144907e+00  1.9511159e+00  1.9880475e+00  2.0253223e+00  2.0627661e+00  2.1004167e+00  2.1380896e+00  2.1758197e+00  2.2134167e+00  2.2509108e+00  2.2881089e+00  2.3250375e+00  2.3615018e+00  2.3974716e+00  2.4329172e+00  2.4676438e+00
2.6548663e+00  2.6803681e+00  2.7045495e+00  2.7274245e+00  2.7488555e+00  2.7689303e+00  2.7875205e+00  2.8047326e+00  2.8204497e+00  2.8347410e+00  2.8476666e+00  2.8592012e+00  2.8693120e+00  2.8781479e+00  2.8856389e+00  2.8919424e+00  2.8970043e+00  2.9009889e+00  2.9039081e+00  2.9057760e+00  2.9067701e+00  2.9069126e+00  2.9062807e+00  2.9049017e+00  2.9029619e+00  2.9004901e+00  2.8975684e+00  2.8942786e+00  2.8907017e+00  2.8869174e+00  2.8830032e+00  2.8790342e+00  2.8750826e+00  2.8712169e+00  2.8675017e+00  2.8639971e+00  2.8607584e+00  2.8578358e+00  2.8552739e+00  2.8531115e+00  2.8513814e+00  2.8501635e+00  2.8493757e+00  2.8490803e+00  2.8492841e+00  2.8499871e+00  2.8511828e+00  2.8529106e+00  2.8550489e+00  2.8576198e+00  2.8605906e+00  2.8639225e+00  2.8675709e+00  2.8714858e+00  2.8756118e+00  2.8798890e+00  2.8842528e+00  2.8886347e+00  2.8929625e+00  2.8971614e+00  2.9011536e+00  2.9048595e+00  2.9081983e+00  2.9110881e+00  2.9134469e+00  2.9151408e+00  2.9161934e+00  2.9164726e+00  2.9159012e+00  2.9143510e+00  2.9118563e+00  2.9082972e+00  2.9035550e+00  2.8976788e+00  2.8905089e+00  2.8821019e+00  2.8723134e+00  2.8612095e+00  2.8487153e+00  2.8347484e+00  2.8193560e+00  2.8025776e+00  2.7843132e+00  2.7646735e+00  2.7435694e+00  2.7211308e+00  2.6972772e+00  2.6721035e+00  2.6457006e+00  2.6180142e+00  2.5892059e+00  2.5592245e+00  2.5281924e+00  2.4962293e+00  2.4633000e+00  2.4295897e+00  2.3950640e+00  2.3598599e+00  2.3241123e+00  2.2877934e+00  2.2510957e+00  2.2139912e+00  2.1766162e+00  2.1391070e+00  2.1014318e+00  2.0637787e+00  2.0261125e+00  1.9886163e+00  1.9512499e+00  1.9141921e+00  1.8773942e+00  1.8410333e+00  1.8051067e+00  1.7696178e+00  1.7347298e+00  1.7004329e+00  1.6667731e+00  1.6337429e+00  1.6014894e+00  1.5699937e+00  1.5392906e+00  1.5094125e+00  1.4803892e+00  1.4522481e+00  1.4129337e+00  1.2612760e+00  1.1133263e+00  9.6932772e-01  8.2958208e-01  6.9426277e-01  5.6368240e-01  4.3803564e-01  3.1770292e-01  2.0288581e-01  9.3883931e-02 -9.0021106e-03 -1.0547339e-01 -1.9523550e-01 -2.7800156e-01 -3.5349532e-01 -4.2132012e-01 -4.8137549e-01 -5.3327519e-01 -5.7692067e-01 -6.1195928e-01 -6.3834107e-01 -6.5595312e-01 -6.6457839e-01 -6.6427266e-01 -6.5503583e-01 -6.3691390e-01 -6.0991980e-01 -5.7426818e-01 -5.3011117e-01 -4.7759665e-01 -4.1702798e-01 -3.4858593e-01 -2.7257663e-01 -1.8929384e-01 -9.9013767e-02 -2.0232108e-03  1.0138349e-01  2.1090747e-01  3.2624816e-01  4.4710598e-01  5.7317393e-01  7.0428220e-01  8.4002497e-01  9.8030135e-01  1.1247257e+00  1.2731021e+00  1.4252947e+00  1.4650380e+00  1.4936090e+00  1.5230632e+00  1.5533730e+00  1.5845087e+00  1.6164380e+00  1.6491258e+00  1.6824823e+00  1.7165777e+00  1.7513111e+00  1.7866362e+00  1.8224532e+00  1.8588181e+00  1.8956176e+00  1.9327448e+00  1.9702422e+00  2.0079385e+00  2.0458749e+00  2.0838714e+00  2.1219652e+00  2.1599710e+00  2.1979212e+00  2.2356270e+00  2.2730624e+00  2.3102013e+00  2.3468510e+00  2.3830397e+00
2.5851706e+00  2.6132352e+00  2.6401484e+00  2.6657543e+00  2.6900757e+00  2.7131277e+00  2.7347839e+00  2.7551308e+00  2.7740504e+00  2.7916476e+00  2.8078156e+00  2.8226749e+00  2.8361326e+00  2.8483221e+00  2.8591659e+00  2.8688069e+00  2.8771842e+00  2.8844473e+00  2.8906014e+00  2.8956501e+00  2.8997601e+00  2.9029464e+00  2.9052778e+00  2.9067724e+00  2.9076097e+00  2.9078121e+00  2.9074552e+00  2.9066149e+00  2.9053152e+00  2.9037350e+00  2.9018950e+00  2.8998665e+00  2.8977178e+00  2.8955144e+00  2.8933182e+00  2.8911868e+00  2.8891737e+00  2.8873272e+00  2.8856905e+00  2.8843527e+00  2.8832446e+00  2.8824417e+00  2.8819634e+00  2.8818230e+00  2.8820268e+00  2.8825749e+00  2.8834609e+00  2.8846717e+00  2.8861880e+00  2.8880364e+00  2.8900819e+00  2.8923377e+00  2.8947606e+00  2.8973022e+00  2.8999093e+00  2.9025242e+00  2.9050850e+00  2.9075265e+00  2.9097801e+00  2.9117748e+00  2.9133859e+00  2.9146422e+00  2.9154160e+00  2.9156314e+00  2.9152128e+00  2.9140329e+00  2.9121220e+00  2.9093570e+00  2.9056695e+00  2.9009383e+00  2.8952085e+00  2.8883706e+00  2.8803128e+00  2.8710988e+00  2.8605759e+00  2.8488152e+00  2.8356796e+00  2.8212507e+00  2.8054061e+00  2.7882409e+00  2.7696459e+00  2.7497325e+00  2.7284020e+00  2.7057848e+00  2.6817902e+00  2.6565114e+00  2.6300350e+00  2.6022983e+00  2.5734616e+00  2.5434645e+00  2.5124272e+00  2.4804654e+00  2.4475363e+00  2.4137687e+00  2.3792873e+00  2.3440605e+00  2.3082760e+00  2.2719001e+00  2.2350696e+00  2.1979178e+00  2.1604139e+00  2.1227463e+00  2.0848827e+00  2.0469528e+00  2.0090869e+00  1.9712451e+00  1.9336081e+00  1.8961310e+00  1.8589897e+00  1.8221321e+00  1.7857306e+00  1.7497794e+00  1.7142803e+00  1.6793892e+00  1.6450948e+00  1.6113884e+00  1.5784186e+00  1.5461650e+00  1.5146618e+00  1.4839408e+00  1.4540315e+00  1.4159092e+00  1.2532391e+00  1.0936336e+00  9.3729330e-01  7.8442470e-01  6.3530061e-01  4.9009491e-01  3.4903072e-01  2.1246782e-01  8.0508017e-02 -4.6399438e-02 -1.6809065e-01 -2.8426281e-01 -3.9460929e-01 -4.9882206e-01 -5.9659447e-01 -6.8762411e-01 -7.7161584e-01 -8.4819791e-01 -9.1715276e-01 -9.7815082e-01 -1.0309718e+00 -1.0752993e+00 -1.1109929e+00 -1.1378992e+00 -1.1557558e+00 -1.1645564e+00 -1.1642507e+00 -1.1548385e+00 -1.1363700e+00 -1.1089535e+00 -1.0726468e+00 -1.0277054e+00 -9.7437197e-01 -9.1275784e-01 -8.4328852e-01 -7.6608766e-01 -6.8157897e-01 -5.9003111e-01 -4.9173914e-01 -3.8700542e-01 -2.7613656e-01 -1.5944051e-01 -3.7223896e-02  9.0210520e-02  2.2259302e-01  3.5968572e-01  5.0117488e-01  6.4680658e-01  7.9646455e-01  9.4976137e-01  1.1065308e+00  1.2665665e+00  1.4296677e+00  1.4682220e+00  1.4985642e+00  1.5297189e+00  1.5616566e+00  1.5943456e+00  1.6277513e+00  1.6617853e+00  1.6965170e+00  1.7318458e+00  1.7676737e+00  1.8040637e+00  1.8409046e+00  1.8780920e+00  1.9156733e+00  1.9534806e+00  1.9915581e+00  2.0297305e+00  2.0680374e+00  2.1062980e+00  2.1444925e+00  2.1826012e+00  2.2204359e+00  2.2580289e+00  2.2951901e+00
2.5093093e+00  2.5396064e+00  2.5687609e+00  2.5967856e+00  2.6236855e+00  2.6493141e+00  2.6737506e+00  2.6968522e+00  2.7186626e+00  2.7392126e+00  2.7583958e+00  2.7763131e+00  2.7928692e+00  2.8081791e+00  2.8221614e+00  2.8349417e+00  2.8465062e+00  2.8568322e+00  2.8660741e+00  2.8741729e+00  2.8812836e+00  2.8874138e+00  2.8925699e+00  2.8969173e+00  2.9004715e+00  2.9032995e+00  2.9054692e+00  2.9069973e+00  2.9080577e+00  2.9086672e+00  2.9088936e+00  2.9088029e+00  2.9084591e+00  2.9079236e+00  2.9072547e+00  2.9065068e+00  2.9057305e+00  2.9049717e+00  2.9042715e+00  2.9036658e+00  2.9031849e+00  2.9028534e+00  2.9026899e+00  2.9027069e+00  2.9029107e+00  2.9033014e+00  2.9038727e+00  2.9046121e+00  2.9055011e+00  2.9065153e+00  2.9076242e+00  2.9087922e+00  2.9099781e+00  2.9111361e+00  2.9122158e+00  2.9131626e+00  2.9139184e+00  2.9144218e+00  2.9146089e+00  2.9144136e+00  2.9137683e+00  2.9125521e+00  2.9107990e+00  2.9083886e+00  2.9052529e+00  2.9013250e+00  2.8964841e+00  2.8907752e+00  2.8840866e+00  2.8763051e+00  2.8674872e+00  2.8574799e+00  2.8463411e+00  2.8339875e+00  2.8203260e+00  2.8054445e+00  2.7892104e+00  2.7717233e+00  2.7528632e+00  2.7327450e+00  2.7112590e+00  2.6884823e+00  2.6644798e+00  2.6391772e+00  2.6127125e+00  2.5850148e+00  2.5561877e+00  2.5263276e+00  2.4953865e+00  2.4635315e+00  2.4307119e+00  2.3970543e+00  2.3626795e+00  2.3275497e+00  2.2917959e+00  2.2555448e+00  2.2187648e+00  2.1816426e+00  2.1441424e+00  2.1063975e+00  2.0685370e+00  2.0305250e+00  1.9925435e+00  1.9545535e+00  1.9166769e+00  1.8790365e+00  1.8415827e+00  1.8044888e+00  1.7676988e+00  1.7313813e+00  1.6955276e+00  1.6601366e+00  1.6253592e+00  1.5911271e+00  1.5575955e+00  1.5247399e+00  1.4925943e+00  1.4611901e+00  1.4305050e+00  1.2794089e+00  1.1102715e+00  9.4376240e-01  7.8006956e-01  6.1938736e-01  4.6199527e-01  3.0799195e-01  1.5763543e-01  1.1214225e-02 -1.3108646e-01 -2.6897845e-01 -4.0222637e-01 -5.3049789e-01 -6.5355916e-01 -7.7110083e-01 -8.8280927e-01 -9.8836913e-01 -1.0874660e+00 -1.1797895e+00 -1.2650361e+00 -1.3427783e+00 -1.4128667e+00 -1.4748432e+00 -1.5285380e+00 -1.5676084e+00 -1.5673018e+00 -1.5669956e+00 -1.5666897e+00 -1.5663839e+00 -1.5660782e+00 -1.5657724e+00 -1.5654664e+00 -1.5651602e+00 -1.5648537e+00 -1.5252716e+00 -1.4709618e+00 -1.4083690e+00 -1.3377659e+00 -1.2594046e+00 -1.1736408e+00 -1.0807988e+00 -9.8118213e-01 -8.7510105e-01 -7.6286992e-01 -6.4480407e-01 -5.2121708e-01 -3.9241829e-01 -2.5874742e-01 -1.2032532e-01  2.2400603e-02  1.6935476e-01  3.2013876e-01  4.7457055e-01  6.3249959e-01  7.9361241e-01  9.5773679e-01  1.1246783e+00  1.2942490e+00  1.4457792e+00  1.4767905e+00  1.5086302e+00  1.5412120e+00  1.5745045e+00  1.6084737e+00  1.6430343e+00  1.6782503e+00  1.7139706e+00  1.7502637e+00  1.7870210e+00  1.8241411e+00  1.8616754e+00  1.8994597e+00  1.9375410e+00  1.9757483e+00  2.0140690e+00  2.0524917e+00  2.0908346e+00  2.1291362e+00  2.1672119e+00  2.2050428e+00
2.4282374e+00  2.4603161e+00  2.4913850e+00  2.5214976e+00  2.5504904e+00  2.5783811e+00  2.6051764e+00  2.6307391e+00  2.6551487e+00  2.6782710e+00  2.7002053e+00  2.7208239e+00  2.7402432e+00  2.7583454e+00  2.7752604e+00  2.7908841e+00  2.8053553e+00  2.8185869e+00  2.8307217e+00  2.8416916e+00  2.8516396e+00  2.8605654e+00  2.8684640e+00  2.8754922e+00  2.8816574e+00  2.8870176e+00  2.8915782e+00  2.8955070e+00  2.8988144e+00  2.9015622e+00  2.9038116e+00  2.9055711e+00  2.9070023e+00  2.9081107e+00  2.9089501e+00  2.9095708e+00  2.9100199e+00  2.9103400e+00  2.9105695e+00  2.9107420e+00  2.9108859e+00  2.9110243e+00  2.9111747e+00  2.9113488e+00  2.9115526e+00  2.9117861e+00  2.9120435e+00  2.9123130e+00  2.9125773e+00  2.9128132e+00  2.9129924e+00  2.9130815e+00  2.9130421e+00  2.9128315e+00  2.9124029e+00  2.9117058e+00  2.9106865e+00  2.9092366e+00  2.9074004e+00  2.9050667e+00  2.9021742e+00  2.8986611e+00  2.8944129e+00  2.8894700e+00  2.8837231e+00  2.8771141e+00  2.8695306e+00  2.8610257e+00  2.8514996e+00  2.8408469e+00  2.8291358e+00  2.8162227e+00  2.8021770e+00  2.7868730e+00  2.7703853e+00  2.7526041e+00  2.7336138e+00  2.7133176e+00  2.6918138e+00  2.6690151e+00  2.6450377e+00  2.6197998e+00  2.5934382e+00  2.5658733e+00  2.5372068e+00  2.5075298e+00  2.4767882e+00  2.4451464e+00  2.4125461e+00  2.3791113e+00  2.3449590e+00  2.3100448e+00  2.2744978e+00  2.2384409e+00  2.2018374e+00  2.1648177e+00  2.1275073e+00  2.0898715e+00  2.0520936e+00  2.0141333e+00  1.9761181e+00  1.9381711e+00  1.9002491e+00  1.8625268e+00  1.8249571e+00  1.7876530e+00  1.7507292e+00  1.7141261e+00  1.6780091e+00  1.6423664e+00  1.6071934e+00  1.5726377e+00  1.5386301e+00  1.5053188e+00  1.4726785e+00  1.4406861e+00  1.3333727e+00  1.1566475e+00  9.8197680e-01  8.0952965e-01  6.3948194e-01  4.7201619e-01  3.0732153e-01  1.4559372e-01 -1.2965104e-02 -1.6809324e-01 -3.1961676e-01 -4.6731019e-01 -6.1084923e-01 -7.5007595e-01 -8.8461208e-01 -1.0142556e+00 -1.1387430e+00 -1.2576481e+00 -1.3707380e+00 -1.4776357e+00 -1.5696165e+00 -1.5693572e+00 -1.5690984e+00 -1.5687888e+00 -1.5684799e+00 -1.5682231e+00 -1.5679155e+00 -1.5676084e+00 -1.5673018e+00 -1.5669956e+00 -1.5666897e+00 -1.5663839e+00 -1.5660782e+00 -1.5657724e+00 -1.5654664e+00 -1.5651602e+00 -1.5648537e+00 -1.5645466e+00 -1.5642390e+00 -1.5639822e+00 -1.5636733e+00 -1.5633636e+00 -1.5631049e+00 -1.5628455e+00 -1.4703445e+00 -1.3628209e+00 -1.2492077e+00 -1.1297778e+00 -1.0048694e+00 -8.7469835e-01 -7.3963306e-01 -5.9998187e-01 -4.5591082e-01 -3.0779066e-01 -1.5583941e-01 -1.7522450e-04  1.5881351e-01  3.2097218e-01  4.8609860e-01  6.5399701e-01  8.2447823e-01  9.9735971e-01  1.1724656e+00  1.3496266e+00  1.4573766e+00  1.4896969e+00  1.5227749e+00  1.5565245e+00  1.5908611e+00  1.6258560e+00  1.6613587e+00  1.6974413e+00  1.7339986e+00  1.7709321e+00  1.8082966e+00  1.8459314e+00  1.8838318e+00  1.9219953e+00  1.9602481e+00  1.9986363e+00  2.0369823e+00  2.0752733e+00  2.1134921e+00
2.3429653e+00  2.3763906e+00  2.4089872e+00  2.4407423e+00  2.4715035e+00  2.5013270e+00  2.5300552e+00  2.5577108e+00  2.5843023e+00  2.6097008e+00  2.6339861e+00  2.6570321e+00  2.6789374e+00  2.6995822e+00  2.7190807e+00  2.7373235e+00  2.7544356e+00  2.7703220e+00  2.7851137e+00  2.7987333e+00  2.8113127e+00  2.8228435e+00  2.8333066e+00  2.8428536e+00  2.8514817e+00  2.8591842e+00  2.8661175e+00  2.8722854e+00  2.8777415e+00  2.8824865e+00  2.8866786e+00  2.8903216e+00  2.8934678e+00  2.8961680e+00  2.8984705e+00  2.9004212e+00  2.9020108e+00  2.9033818e+00  2.9045180e+00  2.9054504e+00  2.9062050e+00  2.9068030e+00  2.9072605e+00  2.9075885e+00  2.9077923e+00  2.9078720e+00  2.9078222e+00  2.9076321e+00  2.9072857e+00  2.9067618e+00  2.9060343e+00  2.9050725e+00  2.9037901e+00  2.9022493e+00  2.9003574e+00  2.8980684e+00  2.8953340e+00  2.8921036e+00  2.8883247e+00  2.8838902e+00  2.8788488e+00  2.8730964e+00  2.8665795e+00  2.8591899e+00  2.8509799e+00  2.8418518e+00  2.8317036e+00  2.8205935e+00  2.8084358e+00  2.7951332e+00  2.7807649e+00  2.7651968e+00  2.7485098e+00  2.7305867e+00  2.7115152e+00  2.6911913e+00  2.6697146e+00  2.6469908e+00  2.6231359e+00  2.5980608e+00  2.5719013e+00  2.5445703e+00  2.5161671e+00  2.4867777e+00  2.4563427e+00  2.4250230e+00  2.3927536e+00  2.3596558e+00  2.3258422e+00  2.2912623e+00  2.2560429e+00  2.2203032e+00  2.1840010e+00  2.1472651e+00  2.1102181e+00  2.0728208e+00  2.0352008e+00  1.9974799e+00  1.9596182e+00  1.9217933e+00  1.8839590e+00  1.8462353e+00  1.8087380e+00  1.7714160e+00  1.7344354e+00  1.6977408e+00  1.6614911e+00  1.6256272e+00  1.5903005e+00  1.5554472e+00  1.5212126e+00  1.4875256e+00  1.4545292e+00  1.4091047e+00  1.2265043e+00  1.0455022e+00  8.6618485e-01  6.8870889e-01  5.1323753e-01  3.3989807e-01  1.6895822e-01  5.4448612e-04 -1.6515458e-01 -3.2786657e-01 -4.8750527e-01 -6.4380840e-01 -7.9655979e-01 -9.4540946e-01 -1.0902808e+00 -1.2307483e+00 -1.3666461e+00 -1.4976936e+00 -1.5707662e+00 -1.5705037e+00 -1.5702419e+00 -1.5699808e+00 -1.5696685e+00 -1.5694090e+00 -1.5690984e+00 -1.5688403e+00 -1.5685313e+00 -1.5682231e+00 -1.5679667e+00 -1.5676595e+00 -1.5673018e+00 -1.5669956e+00 -1.5666897e+00 -1.5663839e+00 -1.5660782e+00 -1.5657724e+00 -1.5654664e+00 -1.5651602e+00 -1.5648025e+00 -1.5644954e+00 -1.5642390e+00 -1.5639307e+00 -1.5636217e+00 -1.5633636e+00 -1.5630531e+00 -1.5627936e+00 -1.5624813e+00 -1.5622202e+00 -1.5619584e+00 -1.5616959e+00 -1.4880966e+00 -1.3566266e+00 -1.2201994e+00 -1.0792008e+00 -9.3390350e-01 -7.8451994e-01 -6.3134032e-01 -4.7460800e-01 -3.1453915e-01 -1.5128816e-01  1.4843117e-02  1.8368994e-01  3.5506371e-01  5.2872915e-01  7.0463582e-01  8.8254783e-01  1.0623019e+00  1.2437414e+00  1.4266703e+00  1.4725332e+00  1.5059685e+00  1.5399850e+00  1.5746594e+00  1.6098427e+00  1.6456098e+00  1.6818041e+00  1.7184946e+00  1.7555199e+00  1.7929416e+00  1.8305944e+00  1.8685329e+00  1.9065874e+00  1.9447525e+00  1.9830184e+00  2.0212107e+00
2.2543374e+00  2.2887902e+00  2.3225835e+00  2.3555540e+00  2.3877033e+00  2.4190218e+00  2.4493628e+00  2.4787866e+00  2.5071396e+00  2.5344502e+00  2.5607286e+00  2.5858527e+00  2.6099034e+00  2.6327607e+00  2.6545232e+00  2.6750772e+00  2.6945349e+00  2.7127935e+00  2.7299733e+00  2.7459867e+00  2.7609564e+00  2.7748650e+00  2.7876781e+00  2.7995453e+00  2.8103981e+00  2.8203733e+00  2.8294701e+00  2.8377322e+00  2.8451471e+00  2.8518700e+00  2.8578970e+00  2.8632744e+00  2.8679941e+00  2.8722040e+00  2.8758977e+00  2.8791158e+00  2.8818961e+00  2.8842735e+00  2.8862794e+00  2.8878890e+00  2.8892289e+00  2.8902678e+00  2.8910202e+00  2.8914958e+00  2.8916996e+00  2.8916316e+00  2.8912870e+00  2.8906561e+00  2.8897243e+00  2.8884210e+00  2.8868238e+00  2.8848554e+00  2.8824846e+00  2.8796765e+00  2.8763934e+00  2.8725947e+00  2.8681838e+00  2.8632188e+00  2.8576048e+00  2.8512958e+00  2.8441918e+00  2.8363450e+00  2.8276644e+00  2.8181063e+00  2.8075669e+00  2.7961185e+00  2.7836201e+00  2.7701319e+00  2.7555837e+00  2.7398870e+00  2.7231305e+00  2.7051899e+00  2.6861572e+00  2.6659225e+00  2.6445868e+00  2.6220502e+00  2.5984280e+00  2.5736259e+00  2.5477776e+00  2.5207903e+00  2.4927610e+00  2.4637696e+00  2.4337535e+00  2.4028690e+00  2.3710456e+00  2.3384016e+00  2.3050441e+00  2.2709186e+00  2.2361484e+00  2.2008483e+00  2.1649720e+00  2.1286459e+00  2.0919890e+00  2.0549584e+00  2.0176800e+00  1.9802735e+00  1.9426953e+00  1.9050680e+00  1.8675080e+00  1.8299687e+00  1.7925658e+00  1.7554111e+00  1.7184512e+00  1.6818491e+00  1.6455453e+00  1.6096972e+00  1.5742409e+00  1.5393268e+00  1.5048865e+00  1.4710641e+00  1.4377854e+00  1.3141927e+00  1.1284538e+00  9.4399699e-01  7.6087866e-01  5.7924314e-01  3.9920418e-01  2.2101704e-01  4.4780325e-02 -1.2933712e-01 -3.0115958e-01 -4.7050443e-01 -6.3718208e-01 -8.0099605e-01 -9.6174306e-01 -1.1191228e+00 -1.2730299e+00 -1.4232026e+00 -1.5692553e+00 -1.5715585e+00 -1.5713466e+00 -1.5710823e+00 -1.5708188e+00 -1.5705561e+00 -1.5702942e+00 -1.5700330e+00 -1.5697205e+00 -1.5694608e+00 -1.5691501e+00 -1.5688919e+00 -1.5685828e+00 -1.5682744e+00 -1.5679667e+00 -1.5676595e+00 -1.5673529e+00 -1.5670466e+00 -1.5666897e+00 -1.5663839e+00 -1.5660782e+00 -1.5657724e+00 -1.5654154e+00 -1.5651092e+00 -1.5648025e+00 -1.5644954e+00 -1.5641877e+00 -1.5638793e+00 -1.5635702e+00 -1.5633119e+00 -1.5630012e+00 -1.5627416e+00 -1.5624291e+00 -1.5621679e+00 -1.5619060e+00 -1.5616433e+00 -1.5613798e+00 -1.5611155e+00 -1.5609035e+00 -1.5580689e+00 -1.4114833e+00 -1.2608831e+00 -1.1065476e+00 -9.4863083e-01 -7.8745320e-01 -6.2320769e-01 -4.5609761e-01 -2.8631946e-01 -1.1406286e-01  6.0489506e-02  2.3716190e-01  4.1578545e-01  5.9615216e-01  7.7822523e-01  9.6178170e-01  1.1466772e+00  1.3327454e+00  1.4567777e+00  1.4903863e+00  1.5246489e+00  1.5594195e+00  1.5947743e+00  1.6305613e+00  1.6668503e+00  1.7034850e+00  1.7405282e+00  1.7778189e+00  1.8154148e+00  1.8531484e+00  1.8910184e+00  1.9290191e+00
2.1633241e+00  2.1984979e+00  2.2330223e+00  2.2668973e+00  2.3001129e+00  2.3325078e+00  2.3640898e+00  2.3948534e+00  2.4246549e+00  2.4535608e+00  2.4814189e+00  2.5082637e+00  2.5341082e+00  2.5588342e+00  2.5825250e+00  2.6050643e+00  2.6265516e+00  2.6468773e+00  2.6661518e+00  2.6842770e+00  2.7013686e+00  2.7173446e+00  2.7323193e+00  2.7462780e+00  2.7591863e+00  2.7711838e+00  2.7822560e+00  2.7923769e+00  2.8016942e+00  2.8101963e+00  2.8178670e+00  2.8248464e+00  2.8311274e+00  2.8367477e+00  2.8416924e+00  2.8460935e+00  2.8499388e+00  2.8532585e+00  2.8560800e+00  2.8584274e+00  2.8602698e+00  2.8617232e+00  2.8627528e+00  2.8633674e+00  2.8635712e+00  2.8633643e+00  2.8627424e+00  2.8616970e+00  2.8601606e+00  2.8582216e+00  2.8558087e+00  2.8528981e+00  2.8494623e+00  2.8454712e+00  2.8408344e+00  2.8356251e+00  2.8297558e+00  2.8231888e+00  2.8158278e+00  2.8077393e+00  2.7988365e+00  2.7890271e+00  2.7783708e+00  2.7667902e+00  2.7541952e+00  2.7406549e+00  2.7260997e+00  2.7104390e+00  2.6937686e+00  2.6759599e+00  2.6571083e+00  2.6371005e+00  2.6160380e+00  2.5938179e+00  2.5705536e+00  2.5461480e+00  2.5207318e+00  2.4942087e+00  2.4666731e+00  2.4381977e+00  2.4087198e+00  2.3783885e+00  2.3471312e+00  2.3150615e+00  2.2822802e+00  2.2487315e+00  2.2145338e+00  2.1797962e+00  2.1444711e+00  2.1086807e+00  2.0725399e+00  2.0360034e+00  1.9991947e+00  1.9622307e+00  1.9250648e+00  1.8878187e+00  1.8506072e+00  1.8133809e+00  1.7762558e+00  1.7393422e+00  1.7025856e+00  1.6660942e+00  1.6299722e+00  1.5941579e+00  1.5588061e+00  1.5238489e+00  1.4894357e+00  1.4554940e+00  1.4143484e+00  1.2254814e+00  1.0374371e+00  8.5023015e-01  6.6411266e-01  4.7914319e-01  2.9541854e-01  1.1319676e-01 -6.7444105e-02 -2.4634832e-01 -4.2335342e-01 -5.9829006e-01 -7.7103361e-01 -9.4124546e-01 -1.1088903e+00 -1.2737187e+00 -1.4355263e+00 -1.5726260e+00 -1.5723580e+00 -1.5721441e+00 -1.5718775e+00 -1.5716647e+00 -1.5713995e+00 -1.5711351e+00 -1.5708714e+00 -1.5706086e+00 -1.5703465e+00 -1.5700851e+00 -1.5698245e+00 -1.5695127e+00 -1.5692019e+00 -1.5689435e+00 -1.5686342e+00 -1.5683257e+00 -1.5680179e+00 -1.5677107e+00 -1.5673529e+00 -1.5670466e+00 -1.5667407e+00 -1.5663839e+00 -1.5660782e+00 -1.5657214e+00 -1.5654154e+00 -1.5651092e+00 -1.5647514e+00 -1.5644441e+00 -1.5641363e+00 -1.5638278e+00 -1.5635186e+00 -1.5632602e+00 -1.5629493e+00 -1.5626375e+00 -1.5623769e+00 -1.5621156e+00 -1.5618535e+00 -1.5615906e+00 -1.5613270e+00 -1.5610626e+00 -1.5607974e+00 -1.5605846e+00 -1.5603180e+00 -1.5601041e+00 -1.5598361e+00 -1.4223065e+00 -1.2600681e+00 -1.0948079e+00 -9.2673039e-01 -7.5597652e-01 -5.8290715e-01 -4.0753539e-01 -2.3009442e-01 -5.0753627e-02  1.3032448e-01  3.1298411e-01  4.9703753e-01  6.8244582e-01  8.6900262e-01  1.0565394e+00  1.2450237e+00  1.4342209e+00  1.4758070e+00  1.5100793e+00  1.5449335e+00  1.5802214e+00  1.6160143e+00  1.6521595e+00  1.6887226e+00  1.7255448e+00  1.7626322e+00  1.7999867e+00  1.8374422e+00
2.0708424e+00  2.1062972e+00  2.1412712e+00  2.1757566e+00  2.2095816e+00  2.2427531e+00  2.2752673e+00  2.3069610e+00  2.3378499e+00  2.3679341e+00  2.3970687e+00  2.4253302e+00  2.4525629e+00  2.4788097e+00  2.5040867e+00  2.5282760e+00  2.5514659e+00  2.5735398e+00  2.5946007e+00  2.6145386e+00  2.6334652e+00  2.6512826e+00  2.6681043e+00  2.6838496e+00  2.6986269e+00  2.7124218e+00  2.7251969e+00  2.7370848e+00  2.7480688e+00  2.7581176e+00  2.7673703e+00  2.7758110e+00  2.7834164e+00  2.7903161e+00  2.7964969e+00  2.8019880e+00  2.8067640e+00  2.8109477e+00  2.8145182e+00  2.8174959e+00  2.8198985e+00  2.8216876e+00  2.8229725e+00  2.8237150e+00  2.8239188e+00  2.8235839e+00  2.8227068e+00  2.8212236e+00  2.8192292e+00  2.8166598e+00  2.8134979e+00  2.8097233e+00  2.8052544e+00  2.8001732e+00  2.7944028e+00  2.7879141e+00  2.7806174e+00  2.7725889e+00  2.7637491e+00  2.7540105e+00  2.7434408e+00  2.7319680e+00  2.7195048e+00  2.7061264e+00  2.6917667e+00  2.6763352e+00  2.6599327e+00  2.6424304e+00  2.6239248e+00  2.6043032e+00  2.5836650e+00  2.5619088e+00  2.5391434e+00  2.5152731e+00  2.4904223e+00  2.4644958e+00  2.4375840e+00  2.4097513e+00  2.3809388e+00  2.3512851e+00  2.3207196e+00  2.2893497e+00  2.2572682e+00  2.2244217e+00  2.1909223e+00  2.1568716e+00  2.1222241e+00  2.0870963e+00  2.0515973e+00  2.0156824e+00  1.9794711e+00  1.9430763e+00  1.9064507e+00  1.8697135e+00  1.8329778e+00  1.7961917e+00  1.7594710e+00  1.7229250e+00  1.6864970e+00  1.6502961e+00  1.6144255e+00  1.5788229e+00  1.5435888e+00  1.5088196e+00  1.4744455e+00  1.4406135e+00  1.3314637e+00  1.1412909e+00  9.5154464e-01  7.6245102e-01  5.7402194e-01  3.8649868e-01  1.9993863e-01  1.4446350e-02 -1.6975107e-01 -3.5256938e-01 -5.3390487e-01 -7.1348756e-01 -8.9122659e-01 -1.0669539e+00 -1.2404942e+00 -1.4116653e+00 -1.5733803e+00 -1.5731642e+00 -1.5728947e+00 -1.5726797e+00 -1.5724651e+00 -1.5721975e+00 -1.5719840e+00 -1.5717179e+00 -1.5714525e+00 -1.5712408e+00 -1.5709768e+00 -1.5707136e+00 -1.5703988e+00 -1.5701374e+00 -1.5698766e+00 -1.5695646e+00 -1.5692536e+00 -1.5689951e+00 -1.5686857e+00 -1.5683771e+00 -1.5680179e+00 -1.5677107e+00 -1.5674040e+00 -1.5670466e+00 -1.5667407e+00 -1.5663839e+00 -1.5660782e+00 -1.5657214e+00 -1.5654154e+00 -1.5650581e+00 -1.5647514e+00 -1.5644441e+00 -1.5640850e+00 -1.5637763e+00 -1.5634669e+00 -1.5632085e+00 -1.5628974e+00 -1.5625855e+00 -1.5623247e+00 -1.5620632e+00 -1.5617484e+00 -1.5614853e+00 -1.5612213e+00 -1.5610096e+00 -1.5607442e+00 -1.5604781e+00 -1.5602646e+00 -1.5599970e+00 -1.5597824e+00 -1.5595673e+00 -1.5592978e+00 -1.5590817e+00 -1.3969336e+00 -1.2253286e+00 -1.0513535e+00 -8.7519071e-01 -6.9701546e-01 -5.1699585e-01 -3.3533225e-01 -1.5207594e-01  3.2560039e-02  2.1838157e-01  4.0538104e-01  5.9334412e-01  7.8210331e-01  9.7163735e-01  1.1617141e+00  1.3523278e+00  1.4618083e+00  1.4960814e+00  1.5307863e+00  1.5659966e+00  1.6015617e+00  1.6374950e+00  1.6738065e+00  1.7103380e+00  1.7470964e+00
1.9775859e+00  2.0130780e+00  2.0482445e+00  2.0829073e+00  2.1170742e+00  2.1506896e+00  2.1837415e+00  2.2160801e+00  2.2477652e+00  2.2786268e+00  2.3086902e+00  2.3379637e+00  2.3662956e+00  2.3937194e+00  2.4202429e+00  2.4457468e+00  2.4703101e+00  2.4938089e+00  2.5163414e+00  2.5377844e+00  2.5582492e+00  2.5776191e+00  2.5960117e+00  2.6133228e+00  2.6296690e+00  2.6449638e+00  2.6593153e+00  2.6727054e+00  2.6850895e+00  2.6965996e+00  2.7072127e+00  2.7168874e+00  2.7257622e+00  2.7338124e+00  2.7410025e+00  2.7474613e+00  2.7531652e+00  2.7581348e+00  2.7623277e+00  2.7658719e+00  2.7687322e+00  2.7709203e+00  2.7723870e+00  2.7732446e+00  2.7734484e+00  2.7729985e+00  2.7718376e+00  2.7700573e+00  2.7676051e+00  2.7644693e+00  2.7605829e+00  2.7560222e+00  2.7507277e+00  2.7446788e+00  2.7377965e+00  2.7301571e+00  2.7216938e+00  2.7123281e+00  2.7021278e+00  2.6910312e+00  2.6789577e+00  2.6659824e+00  2.6520467e+00  2.6370643e+00  2.6211355e+00  2.6041380e+00  2.5861643e+00  2.5671093e+00  2.5470652e+00  2.5259384e+00  2.5038284e+00  2.4806470e+00  2.4565079e+00  2.4313229e+00  2.4052254e+00  2.3781217e+00  2.3501105e+00  2.3212655e+00  2.2915240e+00  2.2609850e+00  2.2297307e+00  2.1977159e+00  2.1650965e+00  2.1318059e+00  2.0979644e+00  2.0636274e+00  2.0288960e+00  1.9937308e+00  1.9582447e+00  1.9225451e+00  1.8865872e+00  1.8504861e+00  1.8143515e+00  1.7781318e+00  1.7419410e+00  1.7058870e+00  1.6699116e+00  1.6341240e+00  1.5986273e+00  1.5633573e+00  1.5284157e+00  1.4938988e+00  1.4597364e+00  1.4260213e+00  1.2507527e+00  1.0598412e+00  8.6918907e-01  6.7879789e-01  4.8889457e-01  2.9948526e-01  1.1080586e-01 -7.7141221e-02 -2.6409500e-01 -4.5000214e-01 -6.3477453e-01 -8.1814361e-01 -1.0000375e+00 -1.1803017e+00 -1.3587749e+00 -1.5352887e+00 -1.5738682e+00 -1.5736511e+00 -1.5734344e+00 -1.5732182e+00 -1.5730025e+00 -1.5727871e+00 -1.5725187e+00 -1.5723044e+00 -1.5720373e+00 -1.5718242e+00 -1.5715585e+00 -1.5712936e+00 -1.5710295e+00 -1.5707662e+00 -1.5705037e+00 -1.5701896e+00 -1.5699287e+00 -1.5696165e+00 -1.5693054e+00 -1.5690468e+00 -1.5687372e+00 -1.5683771e+00 -1.5680692e+00 -1.5677619e+00 -1.5674040e+00 -1.5670977e+00 -1.5667407e+00 -1.5663839e+00 -1.5660782e+00 -1.5657214e+00 -1.5653644e+00 -1.5650581e+00 -1.5647002e+00 -1.5643929e+00 -1.5640850e+00 -1.5637248e+00 -1.5634153e+00 -1.5631567e+00 -1.5628455e+00 -1.5625334e+00 -1.5622725e+00 -1.5619584e+00 -1.5616959e+00 -1.5614325e+00 -1.5611684e+00 -1.5609035e+00 -1.5606378e+00 -1.5604247e+00 -1.5601576e+00 -1.5599434e+00 -1.5596749e+00 -1.5594596e+00 -1.5592438e+00 -1.5590276e+00 -1.5588110e+00 -1.5585939e+00 -1.5195795e+00 -1.3426301e+00 -1.1637204e+00 -9.8301914e-01 -8.0068756e-01 -6.1688019e-01 -4.3177873e-01 -2.4543241e-01 -5.8039000e-02  1.3023806e-01  3.1935773e-01  5.0909743e-01  6.9944149e-01  8.9016335e-01  1.0812565e+00  1.2724988e+00  1.4482086e+00  1.4822545e+00  1.5167477e+00  1.5517057e+00  1.5869779e+00  1.6225785e+00  1.6585157e+00
1.8843470e+00  1.9196049e+00  1.9546205e+00  1.9892330e+00  2.0234435e+00  2.0572450e+00  2.0904741e+00  2.1231393e+00  2.1552377e+00  2.1866098e+00  2.2172726e+00  2.2472268e+00  2.2763260e+00  2.3045952e+00  2.3320355e+00  2.3585262e+00  2.3841395e+00  2.4087438e+00  2.4324349e+00  2.4550755e+00  2.4767797e+00  2.4974098e+00  2.5170924e+00  2.5356953e+00  2.5533498e+00  2.5699357e+00  2.5855812e+00  2.6001839e+00  2.6138608e+00  2.6265330e+00  2.6382981e+00  2.6491426e+00  2.6590266e+00  2.6680622e+00  2.6762300e+00  2.6834915e+00  2.6899578e+00  2.6956066e+00  2.7004523e+00  2.7044425e+00  2.7077042e+00  2.7101967e+00  2.7118711e+00  2.7128296e+00  2.7130334e+00  2.7124826e+00  2.7111140e+00  2.7090293e+00  2.7061757e+00  2.7024918e+00  2.6980547e+00  2.6928149e+00  2.6867580e+00  2.6798038e+00  2.6720463e+00  2.6634215e+00  2.6538461e+00  2.6434136e+00  2.6320611e+00  2.6196990e+00  2.6064362e+00  2.5921445e+00  2.5769146e+00  2.5606409e+00  2.5434035e+00  2.5251140e+00  2.5058502e+00  2.4855348e+00  2.4642510e+00  2.4419265e+00  2.4186575e+00  2.3943705e+00  2.3691812e+00  2.3430091e+00  2.3159946e+00  2.2880454e+00  2.2592667e+00  2.2297406e+00  2.1993997e+00  2.1683500e+00  2.1366821e+00  2.1043405e+00  2.0714355e+00  2.0380668e+00  2.0041816e+00  1.9698948e+00  1.9353141e+00  1.9003829e+00  1.8652199e+00  1.8298816e+00  1.7944723e+00  1.7589444e+00  1.7234081e+00  1.6879686e+00  1.6525685e+00  1.6173160e+00  1.5823133e+00  1.5474951e+00  1.5129641e+00  1.4788167e+00  1.4449812e+00  1.3613097e+00  1.1705845e+00  9.7963573e-01  7.8862602e-01  5.9771877e-01  4.0691260e-01  2.1643331e-01  2.6281195e-02 -1.6331047e-01 -3.5234058e-01 -5.4056005e-01 -7.2791633e-01 -9.1431422e-01 -1.0995156e+00 -1.2834430e+00 -1.4659995e+00 -1.5746309e+00 -1.5744125e+00 -1.5741945e+00 -1.5739768e+00 -1.5737596e+00 -1.5735427e+00 -1.5733263e+00 -1.5730564e+00 -1.5728409e+00 -1.5726260e+00 -1.5723580e+00 -1.5721441e+00 -1.5718775e+00 -1.5716116e+00 -1.5713466e+00 -1.5710823e+00 -1.5708188e+00 -1.5705561e+00 -1.5702942e+00 -1.5699808e+00 -1.5696685e+00 -1.5694090e+00 -1.5690984e+00 -1.5687372e+00 -1.5684285e+00 -1.5681205e+00 -1.5677619e+00 -1.5674551e+00 -1.5670977e+00 -1.5667407e+00 -1.5663839e+00 -1.5660782e+00 -1.5657214e+00 -1.5653644e+00 -1.5650070e+00 -1.5647002e+00 -1.5643416e+00 -1.5640336e+00 -1.5637248e+00 -1.5633636e+00 -1.5630531e+00 -1.5627936e+00 -1.5624813e+00 -1.5621679e+00 -1.5619060e+00 -1.5616433e+00 -1.5613798e+00 -1.5611155e+00 -1.5608505e+00 -1.5605846e+00 -1.5603180e+00 -1.5601041e+00 -1.5598361e+00 -1.5596211e+00 -1.5594057e+00 -1.5591358e+00 -1.5589194e+00 -1.5587025e+00 -1.5584852e+00 -1.5582676e+00 -1.5580495e+00 -1.5578312e+00 -1.4487624e+00 -1.2658774e+00 -1.0815116e+00 -8.9587128e-01 -7.0914387e-01 -5.2134786e-01 -3.3268829e-01 -1.4332789e-01  4.6704397e-02  2.3718713e-01  4.2810738e-01  6.1924435e-01  8.1059275e-01  1.0019333e+00  1.1932129e+00  1.3843792e+00  1.4683814e+00  1.5025475e+00  1.5371356e+00  1.5719968e+00
1.7917822e+00  1.8266164e+00  1.8611833e+00  1.8954872e+00  1.9295271e+00  1.9631305e+00  1.9963088e+00  2.0290102e+00  2.0612257e+00  2.0928066e+00  2.1237625e+00  2.1540885e+00  2.1836431e+00  2.2124443e+00  2.2404884e+00  2.2676531e+00  2.2940060e+00  2.3194071e+00  2.3438999e+00  2.3674911e+00  2.3900821e+00  2.4117441e+00  2.4323750e+00  2.4520599e+00  2.4706990e+00  2.4883844e+00  2.5050245e+00  2.5207107e+00  2.5354173e+00  2.5490721e+00  2.5618139e+00  2.5735338e+00  2.5843506e+00  2.5942341e+00  2.6031215e+00  2.6111510e+00  2.6182271e+00  2.6244509e+00  2.6297989e+00  2.6342248e+00  2.6378281e+00  2.6405801e+00  2.6424334e+00  2.6434777e+00  2.6436815e+00  2.6430449e+00  2.6414974e+00  2.6391532e+00  2.6359581e+00  2.6318384e+00  2.6268990e+00  2.6210841e+00  2.6143150e+00  2.6066953e+00  2.5981155e+00  2.5886427e+00  2.5782373e+00  2.5668263e+00  2.5544971e+00  2.5411522e+00  2.5268594e+00  2.5115879e+00  2.4952594e+00  2.4779902e+00  2.4596638e+00  2.4403967e+00  2.4200797e+00  2.3988372e+00  2.3765614e+00  2.3533915e+00  2.3292152e+00  2.3041312e+00  2.2782020e+00  2.2513558e+00  2.2237372e+00  2.1952557e+00  2.1660214e+00  2.1361234e+00  2.1054891e+00  2.0742304e+00  2.0424453e+00  2.0100673e+00  1.9772129e+00  1.9439339e+00  1.9103273e+00  1.8763490e+00  1.8421080e+00  1.8077091e+00  1.7730974e+00  1.7383860e+00  1.7036279e+00  1.6689235e+00  1.6342205e+00  1.5996237e+00  1.5652331e+00  1.5309850e+00  1.4969812e+00  1.4633182e+00  1.4299234e+00  1.2793276e+00  1.0894427e+00  8.9907599e-01  7.0839705e-01  5.1756030e-01  3.2656277e-01  1.3556677e-01 -5.5260993e-02 -2.4592325e-01 -4.3618947e-01 -6.2606196e-01 -8.1529869e-01 -1.0038494e+00 -1.1916189e+00 -1.3783866e+00 -1.5641283e+00 -1.5751234e+00 -1.5749043e+00 -1.5746855e+00 -1.5744671e+00 -1.5742490e+00 -1.5740312e+00 -1.5738139e+00 -1.5735969e+00 -1.5733803e+00 -1.5731642e+00 -1.5729486e+00 -1.5726797e+00 -1.5724651e+00 -1.5721975e+00 -1.5719307e+00 -1.5717179e+00 -1.5714525e+00 -1.5711879e+00 -1.5709241e+00 -1.5706086e+00 -1.5703465e+00 -1.5700330e+00 -1.5697725e+00 -1.5694608e+00 -1.5691501e+00 -1.5687888e+00 -1.5684799e+00 -1.5681718e+00 -1.5678130e+00 -1.5674551e+00 -1.5670977e+00 -1.5667407e+00 -1.5663839e+00 -1.5660782e+00 -1.5657214e+00 -1.5653644e+00 -1.5650070e+00 -1.5646490e+00 -1.5642903e+00 -1.5639822e+00 -1.5636733e+00 -1.5633119e+00 -1.5630012e+00 -1.5626896e+00 -1.5624291e+00 -1.5621156e+00 -1.5618535e+00 -1.5615380e+00 -1.5612742e+00 -1.5610096e+00 -1.5607442e+00 -1.5605313e+00 -1.5602646e+00 -1.5599970e+00 -1.5597824e+00 -1.5595135e+00 -1.5592978e+00 -1.5590817e+00 -1.5588652e+00 -1.5586482e+00 -1.5584308e+00 -1.5582131e+00 -1.5579950e+00 -1.5577765e+00 -1.5575577e+00 -1.5573387e+00 -1.5459049e+00 -1.3598338e+00 -1.1726266e+00 -9.8452720e-01 -7.9553632e-01 -6.0585910e-01 -4.1565608e-01 -2.2494897e-01 -3.3955948e-02  1.5731292e-01  3.4863978e-01  5.3996817e-01  7.3124602e-01  9.2225573e-01  1.1129531e+00  1.3032788e+00  1.4542050e+00  1.4879300e+00
1.7005193e+00  1.7346166e+00  1.7685760e+00  1.8023458e+00  1.8359200e+00  1.8691421e+00  1.9020176e+00  1.9345461e+00  1.9665613e+00  1.9980779e+00  2.0290483e+00  2.0594632e+00  2.0891863e+00  2.1182296e+00  2.1465866e+00  2.1741324e+00  2.2009333e+00  2.2268399e+00  2.2518932e+00  2.2761016e+00  2.2993481e+00  2.3217150e+00  2.3430734e+00  2.3635267e+00  2.3829400e+00  2.4014314e+00  2.4188656e+00  2.4353685e+00  2.4508105e+00  2.4653172e+00  2.4787711e+00  2.4912895e+00  2.5027726e+00  2.5133219e+00  2.5229102e+00  2.5314669e+00  2.5391261e+00  2.5457838e+00  2.5515425e+00  2.5563734e+00  2.5602135e+00  2.5631790e+00  2.5652300e+00  2.5662959e+00  2.5664997e+00  2.5657396e+00  2.5640963e+00  2.5615387e+00  2.5580046e+00  2.5535820e+00  2.5482319e+00  2.5418809e+00  2.5346309e+00  2.5263815e+00  2.5172033e+00  2.5070647e+00  2.4958900e+00  2.4837835e+00  2.4706389e+00  2.4565453e+00  2.4414136e+00  2.4253252e+00  2.4082024e+00  2.3901270e+00  2.3710263e+00  2.3509905e+00  2.3299459e+00  2.3079983e+00  2.2850668e+00  2.2612793e+00  2.2365424e+00  2.2109528e+00  2.1845753e+00  2.1573477e+00  2.1294160e+00  2.1006922e+00  2.0712893e+00  2.0413021e+00  2.0106532e+00  1.9794585e+00  1.9477659e+00  1.9156682e+00  1.8831165e+00  1.8502187e+00  1.8170775e+00  1.7836331e+00  1.7499995e+00  1.7162285e+00  1.6824208e+00  1.6485207e+00  1.6146356e+00  1.5808137e+00  1.5471513e+00  1.5135901e+00  1.4802291e+00  1.4471633e+00  1.3820586e+00  1.1943125e+00  1.0058069e+00  8.1667796e-01  6.2693720e-01  4.3679278e-01  2.4622776e-01  5.5411463e-02 -1.3550032e-01 -3.2650953e-01 -5.1739976e-01 -7.0816390e-01 -8.9864310e-01 -1.0886551e+00 -1.2781519e+00 -1.4670439e+00 -1.5757821e+00 -1.5756173e+00 -1.5753976e+00 -1.5751782e+00 -1.5750138e+00 -1.5747949e+00 -1.5745763e+00 -1.5743580e+00 -1.5741401e+00 -1.5739225e+00 -1.5737053e+00 -1.5734886e+00 -1.5732182e+00 -1.5730025e+00 -1.5727871e+00 -1.5725187e+00 -1.5723044e+00 -1.5720373e+00 -1.5717710e+00 -1.5715055e+00 -1.5712408e+00 -1.5709768e+00 -1.5707136e+00 -1.5703988e+00 -1.5701374e+00 -1.5698245e+00 -1.5695127e+00 -1.5692019e+00 -1.5688403e+00 -1.5685313e+00 -1.5681718e+00 -1.5678642e+00 -1.5675062e+00 -1.5671487e+00 -1.5667916e+00 -1.5664349e+00 -1.5660272e+00 -1.5656704e+00 -1.5653134e+00 -1.5649559e+00 -1.5645978e+00 -1.5642903e+00 -1.5639307e+00 -1.5636217e+00 -1.5632602e+00 -1.5629493e+00 -1.5626375e+00 -1.5623247e+00 -1.5620632e+00 -1.5617484e+00 -1.5614853e+00 -1.5612213e+00 -1.5609566e+00 -1.5606910e+00 -1.5604247e+00 -1.5601576e+00 -1.5599434e+00 -1.5596749e+00 -1.5594596e+00 -1.5592438e+00 -1.5589735e+00 -1.5587567e+00 -1.5585396e+00 -1.5583220e+00 -1.5581041e+00 -1.5578858e+00 -1.5576672e+00 -1.5574482e+00 -1.5572839e+00 -1.5570645e+00 -1.5568448e+00 -1.5566799e+00 -1.4475017e+00 -1.2582794e+00 -1.0683421e+00 -8.7788928e-01 -6.8707937e-01 -4.9598445e-01 -3.0465310e-01 -1.1331302e-01  7.8039897e-02  2.6918699e-01  4.6008276e-01  6.5066802e-01  8.4073927e-01  1.0303086e+00  1.2191443e+00
1.6109457e+00  1.6441918e+00  1.6773609e+00  1.7104544e+00  1.7433109e+00  1.7759406e+00  1.8082934e+00  1.8403652e+00  1.8720012e+00  1.9032113e+00  1.9339984e+00  1.9641977e+00  1.9938304e+00  2.0228529e+00  2.0512577e+00  2.0789167e+00  2.1058972e+00  2.1320396e+00  2.1573843e+00  2.1819440e+00  2.2055811e+00  2.2283391e+00  2.2502220e+00  2.2711307e+00  2.2911360e+00  2.3101278e+00  2.3281954e+00  2.3452231e+00  2.3613124e+00  2.3763478e+00  2.3904354e+00  2.4034657e+00  2.4155425e+00  2.4265675e+00  2.4366350e+00  2.4456632e+00  2.4537300e+00  2.4608166e+00  2.4668528e+00  2.4719567e+00  2.4760300e+00  2.4791627e+00  2.4813280e+00  2.4824534e+00  2.4826572e+00  2.4818375e+00  2.4800800e+00  2.4773552e+00  2.4735879e+00  2.4688922e+00  2.4631625e+00  2.4564848e+00  2.4488272e+00  2.4401063e+00  2.4304490e+00  2.4197319e+00  2.4080663e+00  2.3953448e+00  2.3816695e+00  2.3669439e+00  2.3512683e+00  2.3345513e+00  2.3168988e+00  2.2982189e+00  2.2786303e+00  2.2580346e+00  2.2365700e+00  2.2141263e+00  2.1908041e+00  2.1666651e+00  2.1416366e+00  2.1158110e+00  2.0892536e+00  2.0619127e+00  2.0339329e+00  2.0052297e+00  1.9759171e+00  1.9460382e+00  1.9156793e+00  1.8847911e+00  1.8534774e+00  1.8218363e+00  1.7898070e+00  1.7575014e+00  1.7249695e+00  1.6923095e+00  1.6594660e+00  1.6265461e+00  1.5935980e+00  1.5607184e+00  1.5278486e+00  1.4950899e+00  1.4624856e+00  1.4301275e+00  1.2903710e+00  1.1048713e+00  9.1842536e-01  7.3100931e-01  5.4279629e-01  3.5388413e-01  1.6441228e-01 -2.5613252e-02 -2.1603633e-01 -4.0670844e-01 -5.9762560e-01 -7.8857569e-01 -9.7955919e-01 -1.1703596e+00 -1.3609668e+00 -1.5511681e+00 -1.5762774e+00 -1.5760572e+00 -1.5758921e+00 -1.5756722e+00 -1.5754525e+00 -1.5752879e+00 -1.5750686e+00 -1.5748496e+00 -1.5746309e+00 -1.5744125e+00 -1.5741945e+00 -1.5739768e+00 -1.5737596e+00 -1.5735427e+00 -1.5733263e+00 -1.5731103e+00 -1.5728409e+00 -1.5726260e+00 -1.5723580e+00 -1.5720907e+00 -1.5718775e+00 -1.5716116e+00 -1.5713466e+00 -1.5710295e+00 -1.5707662e+00 -1.5704512e+00 -1.5701896e+00 -1.5698766e+00 -1.5695646e+00 -1.5692536e+00 -1.5688919e+00 -1.5685828e+00 -1.5682231e+00 -1.5678642e+00 -1.5675062e+00 -1.5671487e+00 -1.5667916e+00 -1.5664349e+00 -1.5660272e+00 -1.5656704e+00 -1.5653134e+00 -1.5649559e+00 -1.5645978e+00 -1.5642390e+00 -1.5638793e+00 -1.5635702e+00 -1.5632085e+00 -1.5628974e+00 -1.5625855e+00 -1.5622725e+00 -1.5620108e+00 -1.5616959e+00 -1.5614325e+00 -1.5611155e+00 -1.5608505e+00 -1.5605846e+00 -1.5603714e+00 -1.5601041e+00 -1.5598361e+00 -1.5596211e+00 -1.5593518e+00 -1.5591358e+00 -1.5589194e+00 -1.5587025e+00 -1.5584852e+00 -1.5582676e+00 -1.5580495e+00 -1.5578312e+00 -1.5576125e+00 -1.5573935e+00 -1.5571742e+00 -1.5570096e+00 -1.5567899e+00 -1.5565699e+00 -1.5564049e+00 -1.5561847e+00 -1.5307449e+00 -1.3401028e+00 -1.1491648e+00 -9.5792332e-01 -7.6660897e-01 -5.7521773e-01 -3.8396973e-01 -1.9285658e-01 -2.1028291e-03  1.8825327e-01  3.7816569e-01  5.6740808e-01  7.5595115e-01
1.5235385e+00  1.5557917e+00  1.5880728e+00  1.6202191e+00  1.6522455e+00  1.6841042e+00  1.7158002e+00  1.7471671e+00  1.7782208e+00  1.8089136e+00  1.8392468e+00  1.8690613e+00  1.8983747e+00  1.9271429e+00  1.9553588e+00  1.9828903e+00  2.0097526e+00  2.0359425e+00  2.0613337e+00  2.0860015e+00  2.1097860e+00  2.1327354e+00  2.1548653e+00  2.1760418e+00  2.1963134e+00  2.2156829e+00  2.2340599e+00  2.2515116e+00  2.2679356e+00  2.2834170e+00  2.2978469e+00  2.3113213e+00  2.3237303e+00  2.3351743e+00  2.3455475e+00  2.3549483e+00  2.3632793e+00  2.3706315e+00  2.3769201e+00  2.3822230e+00  2.3865195e+00  2.3897263e+00  2.3919758e+00  2.3931463e+00  2.3933501e+00  2.3924853e+00  2.3906436e+00  2.3877427e+00  2.3838542e+00  2.3789595e+00  2.3729774e+00  2.3660341e+00  2.3580099e+00  2.3490187e+00  2.3389532e+00  2.3279197e+00  2.3158190e+00  2.3027563e+00  2.2886356e+00  2.2735671e+00  2.2574532e+00  2.2404158e+00  2.2223501e+00  2.2033963e+00  2.1834371e+00  2.1625735e+00  2.1408617e+00  2.1182264e+00  2.0947566e+00  2.0705092e+00  2.0454341e+00  2.0196663e+00  1.9931213e+00  1.9659077e+00  1.9381165e+00  1.9096675e+00  1.8806739e+00  1.8511797e+00  1.8212746e+00  1.7909034e+00  1.7601718e+00  1.7291276e+00  1.6978627e+00  1.6663279e+00  1.6346260e+00  1.6028045e+00  1.5709573e+00  1.5390301e+00  1.5071232e+00  1.4752807e+00  1.4435952e+00  1.3737263e+00  1.1923562e+00  1.0096609e+00  8.2577026e-01  6.4068947e-01  4.5457684e-01  2.6758243e-01  7.9676150e-02 -1.0896699e-01 -2.9824928e-01 -4.8802821e-01 -6.7830243e-01 -8.6891378e-01 -1.0597112e+00 -1.2506926e+00 -1.4416439e+00 -1.5769387e+00 -1.5767182e+00 -1.5765528e+00 -1.5763325e+00 -1.5761673e+00 -1.5759471e+00 -1.5757821e+00 -1.5755623e+00 -1.5753427e+00 -1.5751234e+00 -1.5749591e+00 -1.5747402e+00 -1.5745217e+00 -1.5743035e+00 -1.5740856e+00 -1.5738682e+00 -1.5736511e+00 -1.5733803e+00 -1.5731642e+00 -1.5729486e+00 -1.5726797e+00 -1.5724651e+00 -1.5721975e+00 -1.5719307e+00 -1.5716647e+00 -1.5713995e+00 -1.5711351e+00 -1.5708188e+00 -1.5705561e+00 -1.5702419e+00 -1.5699287e+00 -1.5696165e+00 -1.5693054e+00 -1.5689435e+00 -1.5686342e+00 -1.5682744e+00 -1.5679155e+00 -1.5675573e+00 -1.5671997e+00 -1.5667916e+00 -1.5664349e+00 -1.5660272e+00 -1.5656704e+00 -1.5652623e+00 -1.5649048e+00 -1.5645466e+00 -1.5641877e+00 -1.5638278e+00 -1.5635186e+00 -1.5631567e+00 -1.5628455e+00 -1.5625334e+00 -1.5622202e+00 -1.5619060e+00 -1.5616433e+00 -1.5613270e+00 -1.5610626e+00 -1.5607974e+00 -1.5605313e+00 -1.5602646e+00 -1.5599970e+00 -1.5597824e+00 -1.5595135e+00 -1.5592978e+00 -1.5590817e+00 -1.5588110e+00 -1.5585939e+00 -1.5583764e+00 -1.5581586e+00 -1.5579404e+00 -1.5577219e+00 -1.5575030e+00 -1.5573387e+00 -1.5571193e+00 -1.5568997e+00 -1.5566799e+00 -1.5565149e+00 -1.5562948e+00 -1.5561296e+00 -1.5559092e+00 -1.5557439e+00 -1.5555234e+00 -1.4198978e+00 -1.2285053e+00 -1.0371931e+00 -8.4595454e-01 -6.5501245e-01 -4.6440758e-01 -2.7418797e-01 -8.4575334e-02  1.0439797e-01  2.9263423e-01
1.4386413e+00  1.4697892e+00  1.5010014e+00  1.5321307e+00  1.5631882e+00  1.5941285e+00  1.6249542e+00  1.6555108e+00  1.6858108e+00  1.7158075e+00  1.7455016e+00  1.7747392e+00  1.8035354e+00  1.8318461e+00  1.8596664e+00  1.8868590e+00  1.9134394e+00  1.9394103e+00  1.9646295e+00  1.9891244e+00  2.0129011e+00  2.0358243e+00  2.0579289e+00  2.0792188e+00  2.0995794e+00  2.1190924e+00  2.1376156e+00  2.1552070e+00  2.1718749e+00  2.1875224e+00  2.2022277e+00  2.2158796e+00  2.2285749e+00  2.2401930e+00  2.2508438e+00  2.2604018e+00  2.2689840e+00  2.2764644e+00  2.2829625e+00  2.2883548e+00  2.2927590e+00  2.2960573e+00  2.2983625e+00  2.2995641e+00  2.2997679e+00  2.2988720e+00  2.2969746e+00  2.2939822e+00  2.2899860e+00  2.2848999e+00  2.2788103e+00  2.2716365e+00  2.2634634e+00  2.2542127e+00  2.2439719e+00  2.2326616e+00  2.2203773e+00  2.2070341e+00  2.1927410e+00  2.1774031e+00  2.1611487e+00  2.1438679e+00  2.1256558e+00  2.1065583e+00  2.0865099e+00  2.0656371e+00  2.0438460e+00  2.0212367e+00  1.9978795e+00  1.9736999e+00  1.9487964e+00  1.9232475e+00  1.8969842e+00  1.8701093e+00  1.8427135e+00  1.8147218e+00  1.7862452e+00  1.7573277e+00  1.7280614e+00  1.6983860e+00  1.6684081e+00  1.6381740e+00  1.6077791e+00  1.5771626e+00  1.5464294e+00  1.5156248e+00  1.4848463e+00  1.4540242e+00  1.4232620e+00  1.2645293e+00  1.0867362e+00  9.0741792e-01  7.2658318e-01  5.4439005e-01  3.6093436e-01  1.7635049e-01 -9.3657882e-03 -1.9605327e-01 -3.8361574e-01 -5.7191859e-01 -7.6095545e-01 -9.5057174e-01 -1.1406222e+00 -1.3311091e+00 -1.5218726e+00 -1.5773798e+00 -1.5772144e+00 -1.5769938e+00 -1.5768284e+00 -1.5766079e+00 -1.5764426e+00 -1.5762223e+00 -1.5760572e+00 -1.5758371e+00 -1.5756173e+00 -1.5754525e+00 -1.5752330e+00 -1.5750138e+00 -1.5747949e+00 -1.5745763e+00 -1.5743580e+00 -1.5741401e+00 -1.5739225e+00 -1.5737053e+00 -1.5734886e+00 -1.5732722e+00 -1.5730025e+00 -1.5727871e+00 -1.5725187e+00 -1.5722510e+00 -1.5720373e+00 -1.5717710e+00 -1.5714525e+00 -1.5711879e+00 -1.5709241e+00 -1.5706086e+00 -1.5702942e+00 -1.5700330e+00 -1.5696685e+00 -1.5693572e+00 -1.5690468e+00 -1.5686857e+00 -1.5683257e+00 -1.5679667e+00 -1.5675573e+00 -1.5671997e+00 -1.5667916e+00 -1.5664349e+00 -1.5660272e+00 -1.5656704e+00 -1.5652623e+00 -1.5649048e+00 -1.5644954e+00 -1.5641363e+00 -1.5637763e+00 -1.5634153e+00 -1.5631049e+00 -1.5627936e+00 -1.5624291e+00 -1.5621679e+00 -1.5618535e+00 -1.5615380e+00 -1.5612742e+00 -1.5610096e+00 -1.5606910e+00 -1.5604247e+00 -1.5602111e+00 -1.5599434e+00 -1.5596749e+00 -1.5594596e+00 -1.5591898e+00 -1.5589735e+00 -1.5587567e+00 -1.5585396e+00 -1.5583220e+00 -1.5581041e+00 -1.5578858e+00 -1.5576672e+00 -1.5574482e+00 -1.5572290e+00 -1.5570096e+00 -1.5568448e+00 -1.5566249e+00 -1.5564049e+00 -1.5562397e+00 -1.5560194e+00 -1.5558541e+00 -1.5556336e+00 -1.5554682e+00 -1.5552477e+00 -1.5550822e+00 -1.4991339e+00 -1.3080396e+00 -1.1172220e+00 -9.2673074e-01 -7.3678401e-01 -5.4741686e-01 -3.5867391e-01 -1.7078161e-01
1.1307423e+00  1.3029494e+00  1.4165353e+00  1.4465459e+00  1.4765246e+00  1.5064288e+00  1.5362590e+00  1.5658720e+00  1.5952773e+00  1.6244299e+00  1.6533307e+00  1.6818302e+00  1.7099420e+00  1.7376224e+00  1.7648705e+00  1.7915425e+00  1.8176555e+00  1.8432201e+00  1.8680771e+00  1.8922591e+00  1.9157311e+00  1.9384895e+00  1.9604181e+00  1.9815929e+00  2.0018557e+00  2.0212588e+00  2.0398213e+00  2.0574060e+00  2.0740658e+00  2.0898086e+00  2.1045333e+00  2.1183227e+00  2.1310527e+00  2.1428335e+00  2.1535221e+00  2.1631959e+00  2.1718641e+00  2.1794488e+00  2.1860218e+00  2.1914965e+00  2.1959559e+00  2.1993069e+00  2.2016412e+00  2.2028609e+00  2.2030647e+00  2.2021508e+00  2.2002242e+00  2.1971791e+00  2.1931277e+00  2.1879592e+00  2.1817947e+00  2.1745166e+00  2.1662576e+00  2.1568909e+00  2.1465097e+00  2.1351394e+00  2.1227176e+00  2.1093397e+00  2.0949241e+00  2.0795940e+00  2.0632442e+00  2.0459700e+00  2.0278221e+00  2.0087306e+00  1.9887799e+00  1.9680220e+00  1.9464067e+00  1.9240667e+00  1.9009092e+00  1.8770423e+00  1.8525009e+00  1.8273580e+00  1.8015619e+00  1.7752074e+00  1.7483836e+00  1.7210220e+00  1.6932296e+00  1.6650501e+00  1.6365767e+00  1.6077453e+00  1.5786619e+00  1.5493713e+00  1.5199716e+00  1.4903910e+00  1.4607364e+00  1.4310503e+00  1.3177895e+00  1.1460166e+00  9.7229039e-01  7.9678767e-01  6.1960436e-01  4.4083609e-01  2.6061137e-01  7.8931949e-02 -1.0404334e-01 -2.8821943e-01 -4.7345721e-01 -6.5977096e-01 -8.4699592e-01 -1.0350362e+00 -1.2237530e+00 -1.4131475e+00 -1.5780413e+00 -1.5778209e+00 -1.5776555e+00 -1.5774901e+00 -1.5772695e+00 -1.5771041e+00 -1.5768836e+00 -1.5767182e+00 -1.5764977e+00 -1.5763325e+00 -1.5761122e+00 -1.5759471e+00 -1.5757272e+00 -1.5755074e+00 -1.5752879e+00 -1.5751234e+00 -1.5749043e+00 -1.5746855e+00 -1.5744671e+00 -1.5742490e+00 -1.5740312e+00 -1.5738139e+00 -1.5735427e+00 -1.5733263e+00 -1.5731103e+00 -1.5728409e+00 -1.5726260e+00 -1.5723580e+00 -1.5720907e+00 -1.5718242e+00 -1.5715585e+00 -1.5712936e+00 -1.5709768e+00 -1.5707136e+00 -1.5703988e+00 -1.5700851e+00 -1.5697725e+00 -1.5694090e+00 -1.5690984e+00 -1.5687372e+00 -1.5683771e+00 -1.5680179e+00 -1.5676084e+00 -1.5671997e+00 -1.5668426e+00 -1.5664349e+00 -1.5660272e+00 -1.5656194e+00 -1.5652623e+00 -1.5648537e+00 -1.5644441e+00 -1.5640850e+00 -1.5637248e+00 -1.5633636e+00 -1.5630531e+00 -1.5626896e+00 -1.5623769e+00 -1.5620632e+00 -1.5617484e+00 -1.5614853e+00 -1.5611684e+00 -1.5609035e+00 -1.5606378e+00 -1.5603714e+00 -1.5601041e+00 -1.5598361e+00 -1.5596211e+00 -1.5593518e+00 -1.5591358e+00 -1.5589194e+00 -1.5586482e+00 -1.5584308e+00 -1.5582131e+00 -1.5579950e+00 -1.5577765e+00 -1.5575577e+00 -1.5573387e+00 -1.5571742e+00 -1.5569547e+00 -1.5567349e+00 -1.5565149e+00 -1.5563498e+00 -1.5561296e+00 -1.5559643e+00 -1.5557439e+00 -1.5555785e+00 -1.5553580e+00 -1.5551925e+00 -1.5549720e+00 -1.5548065e+00 -1.5546412e+00 -1.5544207e+00 -1.3891963e+00 -1.1994714e+00 -1.0103143e+00 -8.2194412e-01 -6.3438940e-01
6.6158577e-01  8.3302070e-01  1.0024557e+00  1.1697945e+00  1.3349405e+00  1.4213936e+00  1.4500813e+00  1.4786457e+00  1.5070442e+00  1.5352338e+00  1.5632166e+00  1.5908462e+00  1.6181361e+00  1.6450432e+00  1.6715718e+00  1.6975707e+00  1.7230601e+00  1.7480000e+00  1.7723921e+00  1.7960969e+00  1.8191378e+00  1.8415273e+00  1.8631139e+00  1.8839356e+00  1.9040117e+00  1.9231894e+00  1.9415171e+00  1.9590149e+00  1.9755416e+00  1.9911500e+00  2.0058541e+00  2.0195381e+00  2.0323014e+00  2.0439957e+00  2.0546928e+00  2.0644104e+00  2.0730450e+00  2.0806944e+00  2.0872318e+00  2.0927303e+00  2.0971973e+00  2.1005654e+00  2.1029049e+00  2.1041307e+00  2.1043345e+00  2.1034144e+00  2.1014827e+00  2.0984205e+00  2.0943615e+00  2.0891692e+00  2.0829381e+00  2.0756975e+00  2.0673697e+00  2.0580616e+00  2.0476720e+00  2.0362855e+00  2.0239330e+00  2.0105576e+00  1.9962655e+00  1.9809665e+00  1.9647497e+00  1.9476658e+00  1.9296490e+00  1.9107827e+00  1.8911226e+00  1.8706135e+00  1.8493399e+00  1.8273687e+00  1.8046422e+00  1.7812522e+00  1.7572808e+00  1.7326571e+00  1.7074844e+00  1.6818028e+00  1.6556982e+00  1.6291097e+00  1.6021390e+00  1.5748292e+00  1.5472736e+00  1.5194051e+00  1.4913282e+00  1.4630861e+00  1.4347210e+00  1.3486990e+00  1.1838769e+00  1.0168625e+00  8.4775242e-01  6.7664285e-01  5.0366723e-01  3.2881305e-01  1.5224897e-01 -2.5930237e-02 -2.0562999e-01 -3.8671746e-01 -5.6920063e-01 -7.5291815e-01 -9.3777562e-01 -1.1236290e+00 -1.3105029e+00 -1.4982285e+00 -1.5784819e+00 -1.5782617e+00 -1.5780964e+00 -1.5779311e+00 -1.5777107e+00 -1.5775453e+00 -1.5773798e+00 -1.5771593e+00 -1.5769938e+00 -1.5767733e+00 -1.5766079e+00 -1.5763875e+00 -1.5762223e+00 -1.5760022e+00 -1.5757821e+00 -1.5756173e+00 -1.5753976e+00 -1.5751782e+00 -1.5749591e+00 -1.5747402e+00 -1.5745763e+00 -1.5743580e+00 -1.5740856e+00 -1.5738682e+00 -1.5736511e+00 -1.5734344e+00 -1.5731642e+00 -1.5729486e+00 -1.5726797e+00 -1.5724115e+00 -1.5721975e+00 -1.5719307e+00 -1.5716116e+00 -1.5713466e+00 -1.5710823e+00 -1.5707662e+00 -1.5704512e+00 -1.5701374e+00 -1.5698245e+00 -1.5695127e+00 -1.5691501e+00 -1.5687888e+00 -1.5684285e+00 -1.5680179e+00 -1.5676595e+00 -1.5672508e+00 -1.5668426e+00 -1.5664349e+00 -1.5660272e+00 -1.5656194e+00 -1.5652113e+00 -1.5648025e+00 -1.5644441e+00 -1.5640336e+00 -1.5636733e+00 -1.5633119e+00 -1.5629493e+00 -1.5626375e+00 -1.5623247e+00 -1.5620108e+00 -1.5616959e+00 -1.5613798e+00 -1.5611155e+00 -1.5608505e+00 -1.5605313e+00 -1.5602646e+00 -1.5600506e+00 -1.5597824e+00 -1.5595135e+00 -1.5592978e+00 -1.5590276e+00 -1.5588110e+00 -1.5585939e+00 -1.5583764e+00 -1.5581041e+00 -1.5578858e+00 -1.5577219e+00 -1.5575030e+00 -1.5572839e+00 -1.5570645e+00 -1.5568448e+00 -1.5566799e+00 -1.5564599e+00 -1.5562397e+00 -1.5560745e+00 -1.5558541e+00 -1.5556888e+00 -1.5554682e+00 -1.5553028e+00 -1.5550822e+00 -1.5549168e+00 -1.5547514e+00 -1.5545309e+00 -1.5543656e+00 -1.5542004e+00 -1.5539802e+00 -1.4733967e+00 -1.2853412e+00 -1.0981376e+00
1.9210986e-01  3.6283380e-01  5.3153226e-01  6.9811008e-01  8.6252607e-01  1.0245317e+00  1.1841253e+00  1.3412100e+00  1.4214568e+00  1.4485916e+00  1.4755590e+00  1.5022148e+00  1.5285732e+00  1.5545922e+00  1.5802822e+00  1.6054837e+00  1.6302212e+00  1.6544545e+00  1.6781446e+00  1.7012881e+00  1.7237589e+00  1.7455741e+00  1.7667445e+00  1.7871244e+00  1.8067487e+00  1.8256387e+00  1.8436385e+00  1.8607971e+00  1.8771416e+00  1.8925170e+00  1.9069812e+00  1.9205613e+00  1.9331151e+00  1.9447035e+00  1.9553472e+00  1.9649287e+00  1.9735052e+00  1.9810859e+00  1.9875875e+00  1.9930945e+00  1.9974903e+00  2.0008437e+00  2.0031669e+00  2.0043883e+00  2.0045921e+00  2.0036765e+00  2.0017609e+00  1.9987135e+00  1.9946236e+00  1.9895249e+00  1.9833296e+00  1.9761577e+00  1.9678880e+00  1.9586137e+00  1.9483798e+00  1.9370991e+00  1.9248535e+00  1.9116847e+00  1.8975294e+00  1.8824634e+00  1.8665320e+00  1.8496836e+00  1.8319946e+00  1.8135197e+00  1.7942073e+00  1.7741398e+00  1.7533867e+00  1.7318851e+00  1.7097285e+00  1.6870047e+00  1.6636300e+00  1.6397127e+00  1.6152918e+00  1.5904074e+00  1.5651411e+00  1.5394405e+00  1.5134012e+00  1.4870649e+00  1.4605245e+00  1.4337106e+00  1.3537853e+00  1.1970226e+00  1.0377515e+00  8.7606891e-01  7.1208446e-01  5.4583089e-01  3.7745716e-01  2.0705844e-01  3.4729537e-02 -1.3939722e-01 -3.1533298e-01 -4.9291343e-01 -6.7204486e-01 -8.5263368e-01 -1.0345417e+00 -1.2177887e+00 -1.4022094e+00 -1.5790866e+00 -1.5789218e+00 -1.5787019e+00 -1.5785369e+00 -1.5783718e+00 -1.5781515e+00 -1.5779862e+00 -1.5778209e+00 -1.5776004e+00 -1.5774350e+00 -1.5772695e+00 -1.5770490e+00 -1.5768836e+00 -1.5766631e+00 -1.5764977e+00 -1.5762774e+00 -1.5761122e+00 -1.5758921e+00 -1.5756722e+00 -1.5754525e+00 -1.5752879e+00 -1.5750686e+00 -1.5748496e+00 -1.5746309e+00 -1.5744125e+00 -1.5741945e+00 -1.5739768e+00 -1.5737596e+00 -1.5734886e+00 -1.5732722e+00 -1.5730025e+00 -1.5727871e+00 -1.5725187e+00 -1.5722510e+00 -1.5719840e+00 -1.5717179e+00 -1.5714525e+00 -1.5711351e+00 -1.5708714e+00 -1.5705561e+00 -1.5702419e+00 -1.5698766e+00 -1.5695646e+00 -1.5692019e+00 -1.5688403e+00 -1.5684799e+00 -1.5680692e+00 -1.5676595e+00 -1.5672508e+00 -1.5668426e+00 -1.5664349e+00 -1.5660272e+00 -1.5656194e+00 -1.5652113e+00 -1.5648025e+00 -1.5643929e+00 -1.5639822e+00 -1.5636217e+00 -1.5632602e+00 -1.5628974e+00 -1.5625855e+00 -1.5622202e+00 -1.5619060e+00 -1.5615906e+00 -1.5613270e+00 -1.5610096e+00 -1.5607442e+00 -1.5604781e+00 -1.5602111e+00 -1.5599434e+00 -1.5596749e+00 -1.5594596e+00 -1.5591898e+00 -1.5589735e+00 -1.5587025e+00 -1.5584852e+00 -1.5582676e+00 -1.5580495e+00 -1.5578312e+00 -1.5576125e+00 -1.5573935e+00 -1.5571742e+00 -1.5570096e+00 -1.5567899e+00 -1.5565699e+00 -1.5563498e+00 -1.5561847e+00 -1.5559643e+00 -1.5557990e+00 -1.5555785e+00 -1.5554131e+00 -1.5551925e+00 -1.5550271e+00 -1.5548617e+00 -1.5546412e+00 -1.5544758e+00 -1.5543105e+00 -1.5540903e+00 -1.5539251e+00 -1.5537601e+00 -1.5535403e+00 -1.5533755e+00
-2.7761914e-01 -1.0761277e-01  6.0343335e-02  2.2615508e-01  3.8976087e-01  5.5095892e-01  7.0972493e-01  8.6596336e-01  1.0195784e+00  1.1704739e+00  1.3185684e+00  1.4162835e+00  1.4416266e+00  1.4666687e+00  1.4913694e+00  1.5157335e+00  1.5396170e+00  1.5630383e+00  1.5859585e+00  1.6083894e+00  1.6301768e+00  1.6513502e+00  1.6718749e+00  1.6917639e+00  1.7108696e+00  1.7292279e+00  1.7468095e+00  1.7636202e+00  1.7795405e+00  1.7946041e+00  1.8088252e+00  1.8220793e+00  1.8344116e+00  1.8458403e+00  1.8562457e+00  1.8656792e+00  1.8741586e+00  1.8815780e+00  1.8879902e+00  1.8934085e+00  1.8977481e+00  1.9011042e+00  1.9033477e+00  1.9045551e+00  1.9047590e+00  1.9038572e+00  1.9019196e+00  1.8989713e+00  1.8949377e+00  1.8899275e+00  1.8838217e+00  1.8767089e+00  1.8686385e+00  1.8595121e+00  1.8494141e+00  1.8383956e+00  1.8263715e+00  1.8134257e+00  1.7996165e+00  1.7848623e+00  1.7692517e+00  1.7528547e+00  1.7355838e+00  1.7175367e+00  1.6987428e+00  1.6792702e+00  1.6590585e+00  1.6381984e+00  1.6167251e+00  1.5947136e+00  1.5721087e+00  1.5490032e+00  1.5254360e+00  1.5014946e+00  1.4771116e+00  1.4523878e+00  1.4273635e+00  1.3299678e+00  1.1823000e+00  1.0317252e+00  8.7843143e-01  7.2251481e-01  5.6407114e-01  4.0319597e-01  2.4002149e-01  7.4533830e-02 -9.3097706e-02 -2.6277901e-01 -4.3441631e-01 -6.0791608e-01 -7.8314436e-01 -9.6011667e-01 -1.1386698e+00 -1.3187110e+00 -1.5001476e+00 -1.5794705e+00 -1.5793060e+00 -1.5791415e+00 -1.5789767e+00 -1.5788119e+00 -1.5785919e+00 -1.5784269e+00 -1.5782617e+00 -1.5780413e+00 -1.5778760e+00 -1.5777107e+00 -1.5774901e+00 -1.5773247e+00 -1.5771593e+00 -1.5769387e+00 -1.5767733e+00 -1.5765528e+00 -1.5763875e+00 -1.5761673e+00 -1.5759471e+00 -1.5757821e+00 -1.5755623e+00 -1.5753427e+00 -1.5751234e+00 -1.5749591e+00 -1.5747402e+00 -1.5745217e+00 -1.5743035e+00 -1.5740312e+00 -1.5738139e+00 -1.5735969e+00 -1.5733263e+00 -1.5731103e+00 -1.5728409e+00 -1.5726260e+00 -1.5723580e+00 -1.5720907e+00 -1.5718242e+00 -1.5715055e+00 -1.5712408e+00 -1.5709241e+00 -1.5706086e+00 -1.5702942e+00 -1.5699808e+00 -1.5696165e+00 -1.5692536e+00 -1.5688919e+00 -1.5685313e+00 -1.5681205e+00 -1.5677107e+00 -1.5673018e+00 -1.5668936e+00 -1.5664349e+00 -1.5660272e+00 -1.5655685e+00 -1.5651602e+00 -1.5647514e+00 -1.5643416e+00 -1.5639307e+00 -1.5635702e+00 -1.5632085e+00 -1.5628455e+00 -1.5624813e+00 -1.5621679e+00 -1.5618535e+00 -1.5615380e+00 -1.5612213e+00 -1.5609566e+00 -1.5606378e+00 -1.5603714e+00 -1.5601041e+00 -1.5598361e+00 -1.5596211e+00 -1.5593518e+00 -1.5591358e+00 -1.5588652e+00 -1.5586482e+00 -1.5584308e+00 -1.5581586e+00 -1.5579404e+00 -1.5577219e+00 -1.5575030e+00 -1.5573387e+00 -1.5571193e+00 -1.5568997e+00 -1.5566799e+00 -1.5565149e+00 -1.5562948e+00 -1.5560745e+00 -1.5559092e+00 -1.5556888e+00 -1.5555234e+00 -1.5553028e+00 -1.5551374e+00 -1.5549720e+00 -1.5547514e+00 -1.5545860e+00 -1.5544207e+00 -1.5542004e+00 -1.5540352e+00 -1.5538701e+00 -1.5536502e+00 -1.5534853e+00 -1.5533206e+00
-7.4760286e-01 -5.7832027e-01 -4.1111198e-01 -2.4602201e-01 -8.3277318e-02  7.7110276e-02  2.3504675e-01  3.9043783e-01  5.4318897e-01  6.9320544e-01  8.4041544e-01  9.8462652e-01  1.1258139e+00  1.2638824e+00  1.3987370e+00  1.4286347e+00  1.4516402e+00  1.4741684e+00  1.4962344e+00  1.5178007e+00  1.5388808e+00  1.5593215e+00  1.5791531e+00  1.5983415e+00  1.6168538e+00  1.6346919e+00  1.6517373e+00  1.6680145e+00  1.6835439e+00  1.6981806e+00  1.7119706e+00  1.7248911e+00  1.7369534e+00  1.7480467e+00  1.7582115e+00  1.7674686e+00  1.7757011e+00  1.7829614e+00  1.7892762e+00  1.7945298e+00  1.7987820e+00  1.8020639e+00  1.8042651e+00  1.8054508e+00  1.8056546e+00  1.8047747e+00  1.8028792e+00  1.8000052e+00  1.7960589e+00  1.7911116e+00  1.7852051e+00  1.7782514e+00  1.7703256e+00  1.7614779e+00  1.7516204e+00  1.7408348e+00  1.7291833e+00  1.7165711e+00  1.7030900e+00  1.6887625e+00  1.6736460e+00  1.6576789e+00  1.6409442e+00  1.6235209e+00  1.6053204e+00  1.5864442e+00  1.5669254e+00  1.5467980e+00  1.5261363e+00  1.5048845e+00  1.4831336e+00  1.4609210e+00  1.4383372e+00  1.4087565e+00  1.2742193e+00  1.1364689e+00  9.9560015e-01  8.5170828e-01  7.0492477e-01  5.5522882e-01  4.0279875e-01  2.4772930e-01  9.0114994e-02 -6.9949899e-02 -2.3237137e-01 -3.9702957e-01 -5.6391345e-01 -7.3287114e-01 -9.0380991e-01 -1.0766373e+00 -1.2512609e+00 -1.4275430e+00 -1.5800720e+00 -1.5799082e+00 -1.5797442e+00 -1.5795800e+00 -1.5794157e+00 -1.5791963e+00 -1.5790317e+00 -1.5788669e+00 -1.5787019e+00 -1.5784819e+00 -1.5783168e+00 -1.5781515e+00 -1.5779311e+00 -1.5777658e+00 -1.5776004e+00 -1.5773798e+00 -1.5772144e+00 -1.5770490e+00 -1.5768284e+00 -1.5766631e+00 -1.5764426e+00 -1.5762223e+00 -1.5760572e+00 -1.5758371e+00 -1.5756722e+00 -1.5754525e+00 -1.5752330e+00 -1.5750138e+00 -1.5747949e+00 -1.5745763e+00 -1.5743580e+00 -1.5741401e+00 -1.5739225e+00 -1.5736511e+00 -1.5734344e+00 -1.5732182e+00 -1.5729486e+00 -1.5726797e+00 -1.5724115e+00 -1.5721441e+00 -1.5718775e+00 -1.5716116e+00 -1.5712936e+00 -1.5710295e+00 -1.5707136e+00 -1.5703988e+00 -1.5700330e+00 -1.5696685e+00 -1.5693572e+00 -1.5689435e+00 -1.5685828e+00 -1.5681718e+00 -1.5677619e+00 -1.5673529e+00 -1.5668936e+00 -1.5664349e+00 -1.5660272e+00 -1.5655685e+00 -1.5651092e+00 -1.5647002e+00 -1.5642903e+00 -1.5638793e+00 -1.5635186e+00 -1.5631049e+00 -1.5627936e+00 -1.5624291e+00 -1.5620632e+00 -1.5617484e+00 -1.5614325e+00 -1.5611684e+00 -1.5608505e+00 -1.5605846e+00 -1.5603180e+00 -1.5600506e+00 -1.5597824e+00 -1.5595135e+00 -1.5592438e+00 -1.5590276e+00 -1.5588110e+00 -1.5585396e+00 -1.5583220e+00 -1.5581041e+00 -1.5578858e+00 -1.5576672e+00 -1.5574482e+00 -1.5572290e+00 -1.5570096e+00 -1.5567899e+00 -1.5566249e+00 -1.5564049e+00 -1.5562397e+00 -1.5560194e+00 -1.5557990e+00 -1.5556336e+00 -1.5554131e+00 -1.5552477e+00 -1.5550822e+00 -1.5548617e+00 -1.5546963e+00 -1.5545309e+00 -1.5543105e+00 -1.5541453e+00 -1.5539802e+00 -1.5537601e+00 -1.5535952e+00 -1.5534304e+00 -1.5532657e+00
-1.2178428e+00 -1.0492898e+00 -8.8283440e-01 -7.1853954e-01 -5.5658825e-01 -3.9701351e-01 -2.3990810e-01 -8.5365032e-02  6.6522492e-02  2.1566110e-01  3.6199272e-01  5.0530744e-01  6.4558898e-01  7.8274375e-01  9.1667837e-01  1.0472997e+00  1.1745639e+00  1.2982181e+00  1.4093284e+00  1.4300152e+00  1.4502026e+00  1.4698551e+00  1.4889780e+00  1.5074409e+00  1.5252660e+00  1.5424213e+00  1.5589228e+00  1.5746290e+00  1.5895764e+00  1.6037385e+00  1.6171357e+00  1.6296313e+00  1.6412701e+00  1.6520319e+00  1.6619349e+00  1.6708633e+00  1.6788632e+00  1.6859688e+00  1.6920457e+00  1.6971579e+00  1.7012968e+00  1.7044852e+00  1.7066312e+00  1.7077884e+00  1.7079922e+00  1.7071407e+00  1.7053005e+00  1.7025200e+00  1.6986871e+00  1.6938810e+00  1.6881104e+00  1.6814135e+00  1.6737204e+00  1.6650989e+00  1.6556057e+00  1.6451515e+00  1.6338207e+00  1.6216335e+00  1.6086479e+00  1.5947949e+00  1.5801572e+00  1.5647611e+00  1.5486736e+00  1.5318293e+00  1.5143158e+00  1.4961650e+00  1.4774590e+00  1.4581198e+00  1.4382461e+00  1.4178736e+00  1.3070782e+00  1.1837394e+00  1.0568967e+00  9.2659209e-01  7.9297479e-01  6.5613789e-01  5.1617480e-01  3.7317910e-01  2.2727371e-01  7.8455439e-02 -7.3111194e-02 -2.2733282e-01 -3.8411624e-01 -5.4336846e-01 -7.0499670e-01 -8.6886002e-01 -1.0349912e+00 -1.2032194e+00 -1.3734531e+00 -1.5456008e+00 -1.5805079e+00 -1.5803446e+00 -1.5801266e+00 -1.5799628e+00 -1.5797989e+00 -1.5796348e+00 -1.5794705e+00 -1.5793060e+00 -1.5790866e+00 -1.5789218e+00 -1.5787569e+00 -1.5785919e+00 -1.5783718e+00 -1.5782066e+00 -1.5780413e+00 -1.5778760e+00 -1.5776555e+00 -1.5774901e+00 -1.5772695e+00 -1.5771041e+00 -1.5769387e+00 -1.5767182e+00 -1.5765528e+00 -1.5763325e+00 -1.5761122e+00 -1.5759471e+00 -1.5757272e+00 -1.5755074e+00 -1.5752879e+00 -1.5751234e+00 -1.5749043e+00 -1.5746855e+00 -1.5744671e+00 -1.5742490e+00 -1.5739768e+00 -1.5737596e+00 -1.5735427e+00 -1.5732722e+00 -1.5730564e+00 -1.5727871e+00 -1.5725187e+00 -1.5722510e+00 -1.5719840e+00 -1.5716647e+00 -1.5713995e+00 -1.5710823e+00 -1.5707662e+00 -1.5704512e+00 -1.5701374e+00 -1.5697725e+00 -1.5694090e+00 -1.5690468e+00 -1.5686342e+00 -1.5682231e+00 -1.5678130e+00 -1.5673529e+00 -1.5668936e+00 -1.5664349e+00 -1.5660272e+00 -1.5655685e+00 -1.5651092e+00 -1.5646490e+00 -1.5642390e+00 -1.5638278e+00 -1.5634153e+00 -1.5630531e+00 -1.5626896e+00 -1.5623247e+00 -1.5620108e+00 -1.5616959e+00 -1.5613798e+00 -1.5610626e+00 -1.5607974e+00 -1.5604781e+00 -1.5602111e+00 -1.5599434e+00 -1.5596749e+00 -1.5594057e+00 -1.5591898e+00 -1.5589194e+00 -1.5587025e+00 -1.5584852e+00 -1.5582131e+00 -1.5579950e+00 -1.5577765e+00 -1.5575577e+00 -1.5573387e+00 -1.5571742e+00 -1.5569547e+00 -1.5567349e+00 -1.5565149e+00 -1.5563498e+00 -1.5561296e+00 -1.5559092e+00 -1.5557439e+00 -1.5555234e+00 -1.5553580e+00 -1.5551925e+00 -1.5549720e+00 -1.5548065e+00 -1.5545860e+00 -1.5544207e+00 -1.5542555e+00 -1.5540903e+00 -1.5538701e+00 -1.5537051e+00 -1.5535403e+00 -1.5533755e+00 -1.5531560e+00
-1.5955656e+00 -1.5205223e+00 -1.3547855e+00 -1.1913266e+00 -1.0301715e+00 -8.7141159e-01 -7.1513834e-01 -5.6144347e-01 -4.1041883e-01 -2.6215642e-01 -1.1669637e-01  2.5725923e-02  1.6510659e-01  3.0135362e-01  4.3437520e-01  5.6407990e-01  6.9037673e-01  8.1317527e-01  9.3238675e-01  1.0478575e+00  1.1595591e+00  1.2674050e+00  1.3713098e+00  1.4193910e+00  1.4364755e+00  1.4529278e+00  1.4687174e+00  1.4838149e+00  1.4982391e+00  1.5118511e+00  1.5246897e+00  1.5367310e+00  1.5479527e+00  1.5583654e+00  1.5678654e+00  1.5764874e+00  1.5842157e+00  1.5910648e+00  1.5969414e+00  1.6018865e+00  1.6059377e+00  1.6089708e+00  1.6110509e+00  1.6121744e+00  1.6123782e+00  1.6115605e+00  1.6097862e+00  1.6070589e+00  1.6034157e+00  1.5987767e+00  1.5932064e+00  1.5867659e+00  1.5793444e+00  1.5710294e+00  1.5618367e+00  1.5518341e+00  1.5409204e+00  1.5291874e+00  1.5166575e+00  1.5033545e+00  1.4893430e+00  1.4745556e+00  1.4590765e+00  1.4429352e+00  1.4261621e+00  1.3784968e+00  1.2749046e+00  1.1673718e+00  1.0559837e+00  9.4082715e-01  8.2203538e-01  6.9955227e-01  5.7357143e-01  4.4418329e-01  3.1147882e-01  1.7554949e-01  3.6487072e-02 -1.0561639e-01 -2.5065045e-01 -3.9859273e-01 -5.4929666e-01 -7.0267027e-01 -8.5862171e-01 -1.0170593e+00 -1.1778915e+00 -1.3410270e+00 -1.5063318e+00 -1.5810505e+00 -1.5808880e+00 -1.5807252e+00 -1.5805622e+00 -1.5803990e+00 -1.5802356e+00 -1.5800720e+00 -1.5798535e+00 -1.5796895e+00 -1.5795253e+00 -1.5793609e+00 -1.5791963e+00 -1.5789767e+00 -1.5788119e+00 -1.5786470e+00 -1.5784819e+00 -1.5783168e+00 -1.5780964e+00 -1.5779311e+00 -1.5777658e+00 -1.5775453e+00 -1.5773798e+00 -1.5771593e+00 -1.5769938e+00 -1.5767733e+00 -1.5766079e+00 -1.5763875e+00 -1.5762223e+00 -1.5760022e+00 -1.5758371e+00 -1.5756173e+00 -1.5753976e+00 -1.5751782e+00 -1.5749591e+00 -1.5747402e+00 -1.5745217e+00 -1.5743035e+00 -1.5740856e+00 -1.5738682e+00 -1.5735969e+00 -1.5733803e+00 -1.5731103e+00 -1.5728409e+00 -1.5726260e+00 -1.5723580e+00 -1.5720373e+00 -1.5717710e+00 -1.5714525e+00 -1.5711879e+00 -1.5708714e+00 -1.5705561e+00 -1.5701896e+00 -1.5698245e+00 -1.5694608e+00 -1.5690984e+00 -1.5686857e+00 -1.5682744e+00 -1.5678130e+00 -1.5674040e+00 -1.5669446e+00 -1.5664858e+00 -1.5659763e+00 -1.5655175e+00 -1.5650581e+00 -1.5646490e+00 -1.5641877e+00 -1.5637763e+00 -1.5633636e+00 -1.5630012e+00 -1.5626375e+00 -1.5622725e+00 -1.5619060e+00 -1.5615906e+00 -1.5612742e+00 -1.5610096e+00 -1.5606910e+00 -1.5604247e+00 -1.5601041e+00 -1.5598361e+00 -1.5596211e+00 -1.5593518e+00 -1.5590817e+00 -1.5588652e+00 -1.5585939e+00 -1.5583764e+00 -1.5581586e+00 -1.5579404e+00 -1.5577219e+00 -1.5575030e+00 -1.5572839e+00 -1.5570645e+00 -1.5568448e+00 -1.5566249e+00 -1.5564599e+00 -1.5562397e+00 -1.5560745e+00 -1.5558541e+00 -1.5556888e+00 -1.5554682e+00 -1.5553028e+00 -1.5550822e+00 -1.5549168e+00 -1.5546963e+00 -1.5545309e+00 -1.5543656e+00 -1.5541453e+00 -1.5539802e+00 -1.5538151e+00 -1.5536502e+00 -1.5534853e+00 -1.5532657e+00 -1.5531012e+00
-1.5955115e+00 -1.5952952e+00 -1.5951334e+00 -1.5949718e+00 -1.5040265e+00 -1.3460829e+00 -1.1906425e+00 -1.0377955e+00 -8.8763257e-01 -7.4024419e-01 -5.9572098e-01 -4.5411396e-01 -3.1562870e-01 -1.8028294e-01 -4.8166849e-02  8.0629777e-02  2.0601764e-01  3.2790805e-01  4.4621309e-01  5.6088397e-01  6.7170117e-01  7.7867108e-01  8.8171026e-01  9.8073684e-01  1.0756707e+00  1.1664338e+00  1.2529270e+00  1.3350416e+00  1.4097716e+00  1.4228114e+00  1.4351165e+00  1.4467023e+00  1.4574504e+00  1.4673955e+00  1.4765185e+00  1.4848514e+00  1.4922589e+00  1.4987953e+00  1.5044481e+00  1.5092063e+00  1.5130972e+00  1.5160199e+00  1.5180258e+00  1.5191115e+00  1.5193153e+00  1.5185354e+00  1.5168352e+00  1.5142184e+00  1.5107355e+00  1.5062834e+00  1.5009369e+00  1.4947070e+00  1.4876061e+00  1.4796825e+00  1.4708668e+00  1.4612292e+00  1.4507891e+00  1.4396143e+00  1.4276178e+00  1.4148870e+00  1.3404666e+00  1.2586618e+00  1.1725824e+00  1.0821303e+00  9.8750787e-01  8.8879318e-01  7.8606640e-01  6.7940939e-01  5.6890562e-01  4.5465349e-01  3.3666315e-01  2.1508798e-01  9.0015916e-02 -3.8464345e-02 -1.7026351e-01 -3.0529177e-01 -4.4345896e-01 -5.8464100e-01 -7.2884482e-01 -8.7591324e-01 -1.0257557e+00 -1.1782815e+00 -1.3334004e+00 -1.4910218e+00 -1.5816443e+00 -1.5814827e+00 -1.5813209e+00 -1.5811046e+00 -1.5809422e+00 -1.5807795e+00 -1.5806166e+00 -1.5804535e+00 -1.5802901e+00 -1.5801266e+00 -1.5799628e+00 -1.5797442e+00 -1.5795800e+00 -1.5794157e+00 -1.5792512e+00 -1.5790866e+00 -1.5789218e+00 -1.5787019e+00 -1.5785369e+00 -1.5783718e+00 -1.5782066e+00 -1.5779862e+00 -1.5778209e+00 -1.5776555e+00 -1.5774350e+00 -1.5772695e+00 -1.5770490e+00 -1.5768836e+00 -1.5766631e+00 -1.5764977e+00 -1.5762774e+00 -1.5761122e+00 -1.5758921e+00 -1.5756722e+00 -1.5755074e+00 -1.5752879e+00 -1.5750686e+00 -1.5748496e+00 -1.5746309e+00 -1.5744125e+00 -1.5741945e+00 -1.5739225e+00 -1.5737053e+00 -1.5734344e+00 -1.5732182e+00 -1.5729486e+00 -1.5726797e+00 -1.5724115e+00 -1.5721441e+00 -1.5718775e+00 -1.5715585e+00 -1.5712408e+00 -1.5709241e+00 -1.5706086e+00 -1.5702942e+00 -1.5699287e+00 -1.5695646e+00 -1.5691501e+00 -1.5687372e+00 -1.5683257e+00 -1.5678642e+00 -1.5674040e+00 -1.5669446e+00 -1.5664858e+00 -1.5659763e+00 -1.5655175e+00 -1.5650581e+00 -1.5645978e+00 -1.5641363e+00 -1.5637248e+00 -1.5633119e+00 -1.5628974e+00 -1.5625334e+00 -1.5621679e+00 -1.5618535e+00 -1.5615380e+00 -1.5612213e+00 -1.5609035e+00 -1.5605846e+00 -1.5603180e+00 -1.5600506e+00 -1.5597824e+00 -1.5595135e+00 -1.5592438e+00 -1.5590276e+00 -1.5587567e+00 -1.5585396e+00 -1.5582676e+00 -1.5580495e+00 -1.5578312e+00 -1.5576125e+00 -1.5573935e+00 -1.5571742e+00 -1.5569547e+00 -1.5567899e+00 -1.5565699e+00 -1.5563498e+00 -1.5561847e+00 -1.5559643e+00 -1.5557990e+00 -1.5555785e+00 -1.5554131e+00 -1.5551925e+00 -1.5550271e+00 -1.5548065e+00 -1.5546412e+00 -1.5544758e+00 -1.5542555e+00 -1.5540903e+00 -1.5539251e+00 -1.5537601e+00 -1.5535403e+00 -1.5533755e+00 -1.5532109e+00 -1.5530464e+00
-1.5954033e+00 -1.5952413e+00 -1.5950795e+00 -1.5949179e+00 -1.5947567e+00 -1.5945957e+00 -1.5944350e+00 -1.5144190e+00 -1.3651161e+00 -1.2185991e+00 -1.0749572e+00 -9.3427943e-01 -7.9661211e-01 -6.6216060e-01 -5.3094195e-01 -4.0304428e-01 -2.7855519e-01 -1.5756164e-01 -4.0149780e-02  7.3595130e-02  1.8358892e-01  2.8979863e-01  3.9198912e-01  4.9018025e-01  5.8429378e-01  6.7425343e-01  7.5998507e-01  8.4141688e-01  9.1851725e-01  9.9106938e-01  1.0591186e+00  1.1226046e+00  1.1814703e+00  1.2356622e+00  1.2851371e+00  1.3297449e+00  1.3695385e+00  1.4044804e+00  1.4149541e+00  1.4195553e+00  1.4232303e+00  1.4260335e+00  1.4279593e+00  1.4290040e+00  1.4292078e+00  1.4284688e+00  1.4268488e+00  1.4243515e+00  1.4209824e+00  1.4167894e+00  1.4066220e+00  1.3719866e+00  1.3324996e+00  1.2881987e+00  1.2391335e+00  1.1852492e+00  1.1266913e+00  1.0635135e+00  9.9577285e-01  9.2352966e-01  8.4684182e-01  7.6571989e-01  6.8029858e-01  5.9064970e-01  4.9684742e-01  3.9896802e-01  2.9708975e-01  1.9129715e-01  8.1616788e-02 -3.1814155e-02 -1.4891150e-01 -2.6959000e-01 -3.9376347e-01 -5.2134497e-01 -6.5224688e-01 -7.8638107e-01 -9.2362443e-01 -1.0639836e+00 -1.2073063e+00 -1.3535035e+00 -1.5024861e+00 -1.5821811e+00 -1.5820204e+00 -1.5818594e+00 -1.5816981e+00 -1.5815366e+00 -1.5813748e+00 -1.5812128e+00 -1.5809964e+00 -1.5808338e+00 -1.5806709e+00 -1.5805079e+00 -1.5803446e+00 -1.5801811e+00 -1.5800174e+00 -1.5798535e+00 -1.5796895e+00 -1.5794705e+00 -1.5793060e+00 -1.5791415e+00 -1.5789767e+00 -1.5788119e+00 -1.5785919e+00 -1.5784269e+00 -1.5782617e+00 -1.5780964e+00 -1.5778760e+00 -1.5777107e+00 -1.5775453e+00 -1.5773247e+00 -1.5771593e+00 -1.5769387e+00 -1.5767733e+00 -1.5765528e+00 -1.5763875e+00 -1.5761673e+00 -1.5760022e+00 -1.5757821e+00 -1.5755623e+00 -1.5753427e+00 -1.5751234e+00 -1.5749043e+00 -1.5746855e+00 -1.5744671e+00 -1.5742490e+00 -1.5740312e+00 -1.5737596e+00 -1.5735427e+00 -1.5732722e+00 -1.5730564e+00 -1.5727871e+00 -1.5725187e+00 -1.5722510e+00 -1.5719307e+00 -1.5716647e+00 -1.5713466e+00 -1.5710295e+00 -1.5707136e+00 -1.5703465e+00 -1.5699808e+00 -1.5696165e+00 -1.5692019e+00 -1.5687888e+00 -1.5683771e+00 -1.5679155e+00 -1.5674551e+00 -1.5669956e+00 -1.5664858e+00 -1.5659763e+00 -1.5654664e+00 -1.5650070e+00 -1.5645466e+00 -1.5640850e+00 -1.5636733e+00 -1.5632602e+00 -1.5628455e+00 -1.5624813e+00 -1.5621156e+00 -1.5617484e+00 -1.5614325e+00 -1.5611155e+00 -1.5607974e+00 -1.5605313e+00 -1.5602111e+00 -1.5599434e+00 -1.5596749e+00 -1.5594057e+00 -1.5591898e+00 -1.5589194e+00 -1.5587025e+00 -1.5584308e+00 -1.5582131e+00 -1.5579950e+00 -1.5577765e+00 -1.5575577e+00 -1.5573387e+00 -1.5571193e+00 -1.5568997e+00 -1.5566799e+00 -1.5564599e+00 -1.5562948e+00 -1.5560745e+00 -1.5559092e+00 -1.5556888e+00 -1.5555234e+00 -1.5553028e+00 -1.5551374e+00 -1.5549168e+00 -1.5547514e+00 -1.5545860e+00 -1.5543656e+00 -1.5542004e+00 -1.5540352e+00 -1.5538701e+00 -1.5536502e+00 -1.5534853e+00 -1.5533206e+00 -1.5531560e+00 -1.5529916e+00
-1.5953493e+00 -1.5951873e+00 -1.5950256e+00 -1.5948642e+00 -1.5947030e+00 -1.5945421e+00 -1.5943815e+00 -1.5942211e+00 -1.5940610e+00 -1.5939012e+00 -1.5544531e+00 -1.4146599e+00 -1.2779256e+00 -1.1443373e+00 -1.0139440e+00 -8.8693568e-01 -7.6333465e-01 -6.4322615e-01 -5.2669461e-01 -4.1382346e-01 -3.0469508e-01 -1.9939058e-01 -9.7989663e-02 -5.7044327e-04  9.2790707e-02  1.8202035e-01  2.6698890e-01  3.4767924e-01  4.2402392e-01  4.9595816e-01  5.6342008e-01  6.2635088e-01  6.8470824e-01  7.3834065e-01  7.8728306e-01  8.3149092e-01  8.7092364e-01  9.0554467e-01  9.3534852e-01  9.6017033e-01  9.8009524e-01  9.9510449e-01  1.0051839e+00  1.0103240e+00  1.0105278e+00  1.0056935e+00  9.9591983e-01  9.8121644e-01  9.6159749e-01  9.3708176e-01  9.0768627e-01  8.7337171e-01  8.3424567e-01  7.9034472e-01  7.4170949e-01  6.8838454e-01  6.3043759e-01  5.6781500e-01  5.0066163e-01  4.2903633e-01  3.5300098e-01  2.7262038e-01  1.8796201e-01  9.9146630e-02  6.0967264e-03 -9.1010763e-02 -1.9209946e-01 -2.9709122e-01 -4.0590634e-01 -5.1846370e-01 -6.3468092e-01 -7.5447453e-01 -8.7776014e-01 -1.0044525e+00 -1.1344235e+00 -1.2676945e+00 -1.4041110e+00 -1.5435857e+00 -1.5827149e+00 -1.5825551e+00 -1.5823950e+00 -1.5822346e+00 -1.5820740e+00 -1.5819131e+00 -1.5817519e+00 -1.5815905e+00 -1.5814288e+00 -1.5812668e+00 -1.5811046e+00 -1.5808880e+00 -1.5807252e+00 -1.5805622e+00 -1.5803990e+00 -1.5802356e+00 -1.5800720e+00 -1.5799082e+00 -1.5797442e+00 -1.5795800e+00 -1.5793609e+00 -1.5791963e+00 -1.5790317e+00 -1.5788669e+00 -1.5787019e+00 -1.5785369e+00 -1.5783168e+00 -1.5781515e+00 -1.5779862e+00 -1.5777658e+00 -1.5776004e+00 -1.5774350e+00 -1.5772144e+00 -1.5770490e+00 -1.5768284e+00 -1.5766631e+00 -1.5764426e+00 -1.5762774e+00 -1.5760572e+00 -1.5758371e+00 -1.5756722e+00 -1.5754525e+00 -1.5752330e+00 -1.5750138e+00 -1.5747949e+00 -1.5745763e+00 -1.5743580e+00 -1.5740856e+00 -1.5738682e+00 -1.5736511e+00 -1.5733803e+00 -1.5731103e+00 -1.5728947e+00 -1.5726260e+00 -1.5723044e+00 -1.5720373e+00 -1.5717179e+00 -1.5714525e+00 -1.5711351e+00 -1.5707662e+00 -1.5704512e+00 -1.5700851e+00 -1.5697205e+00 -1.5693054e+00 -1.5688919e+00 -1.5684285e+00 -1.5679667e+00 -1.5675062e+00 -1.5669956e+00 -1.5664858e+00 -1.5659763e+00 -1.5654664e+00 -1.5649559e+00 -1.5644954e+00 -1.5640336e+00 -1.5635702e+00 -1.5631567e+00 -1.5627416e+00 -1.5623769e+00 -1.5620108e+00 -1.5616959e+00 -1.5613270e+00 -1.5610096e+00 -1.5607442e+00 -1.5604247e+00 -1.5601576e+00 -1.5598361e+00 -1.5595673e+00 -1.5593518e+00 -1.5590817e+00 -1.5588110e+00 -1.5585939e+00 -1.5583764e+00 -1.5581041e+00 -1.5578858e+00 -1.5576672e+00 -1.5574482e+00 -1.5572290e+00 -1.5570096e+00 -1.5567899e+00 -1.5566249e+00 -1.5564049e+00 -1.5561847e+00 -1.5560194e+00 -1.5557990e+00 -1.5556336e+00 -1.5554131e+00 -1.5552477e+00 -1.5550271e+00 -1.5548617e+00 -1.5546963e+00 -1.5544758e+00 -1.5543105e+00 -1.5541453e+00 -1.5539251e+00 -1.5537601e+00 -1.5535952e+00 -1.5534304e+00 -1.5532657e+00 -1.5531012e+00 -1.5528820e+00
-1.5952952e+00 -1.5951334e+00 -1.5949718e+00 -1.5948104e+00 -1.5946493e+00 -1.5944885e+00 -1.5943280e+00 -1.5941677e+00 -1.5940077e+00 -1.5938480e+00 -1.5936886e+00 -1.5935295e+00 -1.5933706e+00 -1.5932121e+00 -1.4972711e+00 -1.3711228e+00 -1.2483775e+00 -1.1290776e+00 -1.0134130e+00 -9.0140114e-01 -7.9312264e-01 -6.8865677e-01 -5.8808141e-01 -4.9147285e-01 -3.9890562e-01 -3.1045233e-01 -2.2618347e-01 -1.4616725e-01 -7.0469417e-02  8.6175194e-04  6.7683116e-02  1.3000277e-01  1.8776676e-01  2.4092453e-01  2.8942905e-01  3.3323696e-01  3.7230876e-01  4.0661942e-01  4.3604873e-01  4.6064637e-01  4.8038970e-01  4.9526047e-01  5.0524490e-01  5.1033372e-01  5.1053754e-01  5.0575446e-01  4.9607582e-01  4.8151091e-01  4.6207353e-01  4.3778197e-01  4.0865890e-01  3.7475682e-01  3.3599170e-01  2.9249071e-01  2.4429337e-01  1.9144306e-01  1.3398682e-01  7.1975261e-02  5.4623335e-03 -6.5457008e-02 -1.4084551e-01 -2.2055199e-01 -3.0451068e-01 -3.9265334e-01 -4.8490948e-01 -5.8120647e-01 -6.8146977e-01 -7.8562308e-01 -8.9358850e-01 -1.0052867e+00 -1.1206372e+00 -1.2395174e+00 -1.3619473e+00 -1.4877796e+00 -1.5834040e+00 -1.5832454e+00 -1.5830866e+00 -1.5829275e+00 -1.5827681e+00 -1.5826084e+00 -1.5824484e+00 -1.5822881e+00 -1.5821276e+00 -1.5819668e+00 -1.5818057e+00 -1.5816443e+00 -1.5814827e+00 -1.5813209e+00 -1.5811587e+00 -1.5809964e+00 -1.5808338e+00 -1.5806166e+00 -1.5804535e+00 -1.5802901e+00 -1.5801266e+00 -1.5799628e+00 -1.5797989e+00 -1.5796348e+00 -1.5794705e+00 -1.5793060e+00 -1.5790866e+00 -1.5789218e+00 -1.5787569e+00 -1.5785919e+00 -1.5784269e+00 -1.5782066e+00 -1.5780413e+00 -1.5778760e+00 -1.5776555e+00 -1.5774901e+00 -1.5773247e+00 -1.5771041e+00 -1.5769387e+00 -1.5767182e+00 -1.5765528e+00 -1.5763325e+00 -1.5761673e+00 -1.5759471e+00 -1.5757272e+00 -1.5755074e+00 -1.5752879e+00 -1.5751234e+00 -1.5749043e+00 -1.5746309e+00 -1.5744125e+00 -1.5741945e+00 -1.5739768e+00 -1.5737053e+00 -1.5734886e+00 -1.5732182e+00 -1.5729486e+00 -1.5726797e+00 -1.5724115e+00 -1.5721441e+00 -1.5718242e+00 -1.5715055e+00 -1.5711879e+00 -1.5708714e+00 -1.5705037e+00 -1.5701374e+00 -1.5697725e+00 -1.5693572e+00 -1.5689435e+00 -1.5684799e+00 -1.5680179e+00 -1.5675573e+00 -1.5669956e+00 -1.5664858e+00 -1.5659763e+00 -1.5654664e+00 -1.5649048e+00 -1.5644441e+00 -1.5639822e+00 -1.5635186e+00 -1.5631049e+00 -1.5626896e+00 -1.5623247e+00 -1.5619584e+00 -1.5615906e+00 -1.5612742e+00 -1.5609566e+00 -1.5606378e+00 -1.5603180e+00 -1.5600506e+00 -1.5597824e+00 -1.5595135e+00 -1.5592438e+00 -1.5589735e+00 -1.5587567e+00 -1.5584852e+00 -1.5582676e+00 -1.5580495e+00 -1.5578312e+00 -1.5575577e+00 -1.5573387e+00 -1.5571742e+00 -1.5569547e+00 -1.5567349e+00 -1.5565149e+00 -1.5562948e+00 -1.5561296e+00 -1.5559092e+00 -1.5557439e+00 -1.5555234e+00 -1.5553580e+00 -1.5551374e+00 -1.5549720e+00 -1.5548065e+00 -1.5545860e+00 -1.5544207e+00 -1.5542555e+00 -1.5540352e+00 -1.5538701e+00 -1.5537051e+00 -1.5535403e+00 -1.5533755e+00 -1.5531560e+00 -1.5529916e+00 -1.5528273e+00
-1.5952413e+00 -1.5950795e+00 -1.5949179e+00 -1.5947567e+00 -1.5945957e+00 -1.5944350e+00 -1.5942745e+00 -1.5941144e+00 -1.5939545e+00 -1.5937949e+00 -1.5936355e+00 -1.5934765e+00 -1.5933178e+00 -1.5931593e+00 -1.5930011e+00 -1.5928432e+00 -1.5926856e+00 -1.5925282e+00 -1.5004247e+00 -1.3892403e+00 -1.2817766e+00 -1.1781110e+00 -1.0782718e+00 -9.8245475e-01 -8.9066127e-01 -8.0296219e-01 -7.1942619e-01 -6.4011973e-01 -5.6510677e-01 -4.9444871e-01 -4.2820413e-01 -3.6642863e-01 -3.0917472e-01 -2.5649158e-01 -2.0842496e-01 -1.6500076e-01 -1.2634093e-01 -9.2414248e-02 -6.3251061e-02 -3.8877584e-02 -1.9315834e-02 -4.5835453e-03  5.3058918e-03  1.0343483e-02  1.0547300e-02  5.8154519e-03 -3.7681974e-03 -1.8194626e-02 -3.7450420e-02 -6.1517815e-02 -9.0374771e-02 -1.2399504e-01 -1.6234827e-01 -2.0536330e-01 -2.5312274e-01 -3.0549842e-01 -3.6244458e-01 -4.2391198e-01 -4.8984813e-01 -5.6019739e-01 -6.3490114e-01 -7.1389801e-01 -7.9712397e-01 -8.8451259e-01 -9.7599513e-01 -1.0715008e+00 -1.1709240e+00 -1.2742770e+00 -1.3814277e+00 -1.4922985e+00 -1.5840878e+00 -1.5839305e+00 -1.5837729e+00 -1.5836150e+00 -1.5834568e+00 -1.5832983e+00 -1.5831396e+00 -1.5829805e+00 -1.5828212e+00 -1.5826616e+00 -1.5825017e+00 -1.5823416e+00 -1.5821811e+00 -1.5820204e+00 -1.5818594e+00 -1.5816981e+00 -1.5815366e+00 -1.5813748e+00 -1.5812128e+00 -1.5810505e+00 -1.5808880e+00 -1.5807252e+00 -1.5805622e+00 -1.5803446e+00 -1.5801811e+00 -1.5800174e+00 -1.5798535e+00 -1.5796895e+00 -1.5795253e+00 -1.5793609e+00 -1.5791963e+00 -1.5790317e+00 -1.5788119e+00 -1.5786470e+00 -1.5784819e+00 -1.5783168e+00 -1.5780964e+00 -1.5779311e+00 -1.5777658e+00 -1.5775453e+00 -1.5773798e+00 -1.5772144e+00 -1.5769938e+00 -1.5768284e+00 -1.5766079e+00 -1.5764426e+00 -1.5762223e+00 -1.5760022e+00 -1.5758371e+00 -1.5756173e+00 -1.5753976e+00 -1.5751782e+00 -1.5749591e+00 -1.5747402e+00 -1.5745217e+00 -1.5743035e+00 -1.5740312e+00 -1.5738139e+00 -1.5735427e+00 -1.5733263e+00 -1.5730564e+00 -1.5727871e+00 -1.5725187e+00 -1.5721975e+00 -1.5719307e+00 -1.5716116e+00 -1.5712936e+00 -1.5709768e+00 -1.5706086e+00 -1.5702419e+00 -1.5698766e+00 -1.5694608e+00 -1.5689951e+00 -1.5685828e+00 -1.5680692e+00 -1.5675573e+00 -1.5670466e+00 -1.5664858e+00 -1.5659763e+00 -1.5654154e+00 -1.5649048e+00 -1.5643929e+00 -1.5638793e+00 -1.5634669e+00 -1.5630012e+00 -1.5625855e+00 -1.5622202e+00 -1.5618535e+00 -1.5614853e+00 -1.5611684e+00 -1.5608505e+00 -1.5605313e+00 -1.5602646e+00 -1.5599434e+00 -1.5596749e+00 -1.5594057e+00 -1.5591358e+00 -1.5589194e+00 -1.5586482e+00 -1.5584308e+00 -1.5581586e+00 -1.5579404e+00 -1.5577219e+00 -1.5575030e+00 -1.5572839e+00 -1.5570645e+00 -1.5568448e+00 -1.5566249e+00 -1.5564599e+00 -1.5562397e+00 -1.5560194e+00 -1.5558541e+00 -1.5556336e+00 -1.5554682e+00 -1.5552477e+00 -1.5550822e+00 -1.5549168e+00 -1.5546963e+00 -1.5545309e+00 -1.5543656e+00 -1.5541453e+00 -1.5539802e+00 -1.5538151e+00 -1.5536502e+00 -1.5534304e+00 -1.5532657e+00 -1.5531012e+00 -1.5529368e+00 -1.5527726e+00
-1.5951873e+00 -1.5950256e+00 -1.5948642e+00 -1.5947030e+00 -1.5945421e+00 -1.5943815e+00 -1.5942211e+00 -1.5940610e+00 -1.5939012e+00 -1.5937417e+00 -1.5935825e+00 -1.5934236e+00 -1.5932649e+00 -1.5931065e+00 -1.5929484e+00 -1.5927906e+00 -1.5926331e+00 -1.5924759e+00 -1.5923189e+00 -1.5921622e+00 -1.5920057e+00 -1.5918495e+00 -1.5687673e+00 -1.4737093e+00 -1.3826542e+00 -1.2956708e+00 -1.2128262e+00 -1.1341849e+00 -1.0598094e+00 -9.8975918e-01 -9.2409137e-01 -8.6283279e-01 -8.0612028e-01 -7.5394491e-01 -7.0635102e-01 -6.6337942e-01 -6.2506727e-01 -5.9144792e-01 -5.6255085e-01 -5.3840154e-01 -5.1902137e-01 -5.0442756e-01 -4.9463311e-01 -4.8964675e-01 -4.8944294e-01 -4.9412355e-01 -5.0361221e-01 -5.1790016e-01 -5.3697437e-01 -5.6081760e-01 -5.8940844e-01 -6.2272138e-01 -6.6072693e-01 -7.0339169e-01 -7.5067850e-01 -8.0254651e-01 -8.5895136e-01 -9.1979922e-01 -9.8515860e-01 -1.0549000e+00 -1.1289664e+00 -1.2072980e+00 -1.2898326e+00 -1.3765055e+00 -1.4672497e+00 -1.5619963e+00 -1.5847666e+00 -1.5846104e+00 -1.5844539e+00 -1.5842972e+00 -1.5841402e+00 -1.5839830e+00 -1.5838254e+00 -1.5836676e+00 -1.5835096e+00 -1.5833512e+00 -1.5831925e+00 -1.5830336e+00 -1.5828744e+00 -1.5827149e+00 -1.5825551e+00 -1.5823950e+00 -1.5822346e+00 -1.5820740e+00 -1.5819131e+00 -1.5817519e+00 -1.5815905e+00 -1.5814288e+00 -1.5812668e+00 -1.5811046e+00 -1.5809422e+00 -1.5807795e+00 -1.5806166e+00 -1.5804535e+00 -1.5802901e+00 -1.5800720e+00 -1.5799082e+00 -1.5797442e+00 -1.5795800e+00 -1.5794157e+00 -1.5792512e+00 -1.5790866e+00 -1.5789218e+00 -1.5787019e+00 -1.5785369e+00 -1.5783718e+00 -1.5782066e+00 -1.5779862e+00 -1.5778209e+00 -1.5776555e+00 -1.5774350e+00 -1.5772695e+00 -1.5771041e+00 -1.5768836e+00 -1.5767182e+00 -1.5764977e+00 -1.5762774e+00 -1.5761122e+00 -1.5758921e+00 -1.5756722e+00 -1.5755074e+00 -1.5752879e+00 -1.5750686e+00 -1.5748496e+00 -1.5746309e+00 -1.5743580e+00 -1.5741401e+00 -1.5739225e+00 -1.5736511e+00 -1.5733803e+00 -1.5731642e+00 -1.5728947e+00 -1.5725723e+00 -1.5723044e+00 -1.5720373e+00 -1.5717179e+00 -1.5713995e+00 -1.5710295e+00 -1.5707136e+00 -1.5703465e+00 -1.5699287e+00 -1.5695127e+00 -1.5690984e+00 -1.5686342e+00 -1.5681205e+00 -1.5676084e+00 -1.5670977e+00 -1.5665368e+00 -1.5659253e+00 -1.5653644e+00 -1.5648537e+00 -1.5643416e+00 -1.5638278e+00 -1.5633636e+00 -1.5629493e+00 -1.5625334e+00 -1.5621156e+00 -1.5617484e+00 -1.5614325e+00 -1.5610626e+00 -1.5607442e+00 -1.5604247e+00 -1.5601576e+00 -1.5598898e+00 -1.5595673e+00 -1.5592978e+00 -1.5590817e+00 -1.5588110e+00 -1.5585396e+00 -1.5583220e+00 -1.5581041e+00 -1.5578312e+00 -1.5576125e+00 -1.5573935e+00 -1.5571742e+00 -1.5569547e+00 -1.5567899e+00 -1.5565699e+00 -1.5563498e+00 -1.5561847e+00 -1.5559643e+00 -1.5557439e+00 -1.5555785e+00 -1.5553580e+00 -1.5551925e+00 -1.5550271e+00 -1.5548065e+00 -1.5546412e+00 -1.5544758e+00 -1.5542555e+00 -1.5540903e+00 -1.5539251e+00 -1.5537601e+00 -1.5535403e+00 -1.5533755e+00 -1.5532109e+00 -1.5530464e+00 -1.5528820e+00 -1.5527179e+00
